3496.632456 136.000000 6.102633
3497.264911 136.000000 4.205267
3497.897367 136.000000 2.307900
3498.529822 136.000000 0.410534
3499.162278 136.000000 -1.486833
3499.794733 136.000000 -3.384200
3500.427189 136.000000 -5.281566
3501.059644 136.000000 -7.178933
3501.692100 136.000000 -9.076299
3502.324555 136.000000 -10.973666
3502.957011 136.000000 -12.871033
3504.000000 136.000000 -16.000000
3503.177892 134.238339 -16.469776
3502.355783 132.476679 -16.939552
3501.533675 130.715018 -17.409329
3500.711567 128.953357 -17.879105
3499.889458 127.191697 -18.348881
3499.067350 125.430036 -18.818657
3498.245242 123.668375 -19.288433
3497.423134 121.906715 -19.758209
3496.601025 120.145054 -20.227986
3495.778917 118.383393 -20.697762
3494.956809 116.621733 -21.167538
3494.134700 114.860072 -21.637314
3493.312592 113.098411 -22.107090
3492.490484 111.336751 -22.576866
3491.668375 109.575090 -23.046643
3490.846267 107.813429 -23.516419
3490.024159 106.051769 -23.986195
3489.202050 104.290108 -24.455971
3488.379942 102.528447 -24.925747
3487.557834 100.766787 -25.395524
3486.735726 99.005126 -25.865300
3485.913617 97.243466 -26.335076
3485.091509 95.481805 -26.804852
3484.269401 93.720144 -27.274628
3483.447292 91.958484 -27.744404
3482.625184 90.196823 -28.214181
3481.803076 88.435162 -28.683957
3480.980967 86.673502 -29.153733
3480.158859 84.911841 -29.623509
3479.336751 83.150180 -30.093285
3478.514642 81.388520 -30.563061
3477.692534 79.626859 -31.032838
3476.870426 77.865198 -31.502614
3476.048318 76.103538 -31.972390
3475.226209 74.341877 -32.442166
3474.404101 72.580216 -32.911942
3473.581993 70.818556 -33.381718
3472.759884 69.056895 -33.851495
3471.937776 67.295234 -34.321271
3471.115668 65.533574 -34.791047
3470.293559 63.771913 -35.260823
3469.471451 62.010252 -35.730599
3468.649343 60.248592 -36.200376
3467.827234 58.486931 -36.670152
3467.005126 56.725270 -37.139928
3466.183018 54.963610 -37.609704
3465.360910 53.201949 -38.079480
3464.538801 51.440288 -38.549256
3463.716693 49.678628 -39.019033
3462.894585 47.916967 -39.488809
3462.072476 46.155306 -39.958585
3461.250368 44.393646 -40.428361
3460.428260 42.631985 -40.898137
3459.606151 40.870324 -41.367913
3458.784043 39.108664 -41.837690
3457.961935 37.347003 -42.307466
3457.139826 35.585342 -42.777242
3456.317718 33.823682 -43.247018
3455.495610 32.062021 -43.716794
3454.673502 30.300360 -44.186571
3453.851393 28.538700 -44.656347
3453.029285 26.777039 -45.126123
3452.207177 25.015379 -45.595899
3451.385068 23.253718 -46.065675
3450.562960 21.492057 -46.535451
3449.740852 19.730397 -47.005228
3448.918743 17.968736 -47.475004
3448.000000 16.000000 -48.000000
3447.615100 14.075499 -48.384900
3447.230200 12.150998 -48.769800
3446.845299 10.226497 -49.154701
3446.460399 8.301996 -49.539601
3446.075499 6.377496 -49.924501
3445.690599 4.452995 -50.309401
3445.305699 2.528494 -50.694301
3444.920799 0.603993 -51.079201
3444.535898 -1.320508 -51.464102
3444.150998 -3.245009 -51.849002
3443.766098 -5.169510 -52.233902
3443.381198 -7.094011 -52.618802
3442.996298 -9.018512 -53.003702
3442.611397 -10.943013 -53.388603
3442.226497 -12.867513 -53.773503
3441.841597 -14.792014 -54.158403
3441.456697 -16.716515 -54.543303
3441.071797 -18.641016 -54.928203
3440.686897 -20.565517 -55.313103
3440.000000 -24.000000 -56.000000
3439.288009 -24.000000 -57.868975
3438.576019 -24.000000 -59.737951
3437.864028 -24.000000 -61.606926
3437.152037 -24.000000 -63.475902
3436.440047 -24.000000 -65.344877
3435.728056 -24.000000 -67.213853
3435.016065 -24.000000 -69.082828
3434.304075 -24.000000 -70.951804
3433.592084 -24.000000 -72.820779
3432.880093 -24.000000 -74.689755
3432.168103 -24.000000 -76.558730
3431.456112 -24.000000 -78.427706
3430.744121 -24.000000 -80.296681
3430.032131 -24.000000 -82.165657
3429.320140 -24.000000 -84.034632
3428.608150 -24.000000 -85.903608
3427.896159 -24.000000 -87.772583
3427.184168 -24.000000 -89.641558
3426.472178 -24.000000 -91.510534
3425.760187 -24.000000 -93.379509
3425.048196 -24.000000 -95.248485
3424.336206 -24.000000 -97.117460
3423.624215 -24.000000 -98.986436
3422.912224 -24.000000 -100.855411
3422.200234 -24.000000 -102.724387
3421.488243 -24.000000 -104.593362
3420.776252 -24.000000 -106.462338
3420.064262 -24.000000 -108.331313
3419.352271 -24.000000 -110.200289
3418.640280 -24.000000 -112.069264
3417.928290 -24.000000 -113.938240
3417.216299 -24.000000 -115.807215
3416.504308 -24.000000 -117.676191
3415.792318 -24.000000 -119.545166
3415.080327 -24.000000 -121.414141
3414.368336 -24.000000 -123.283117
3413.656346 -24.000000 -125.152092
3412.944355 -24.000000 -127.021068
3412.232364 -24.000000 -128.890043
3411.520374 -24.000000 -130.759019
3410.808383 -24.000000 -132.627994
3410.096392 -24.000000 -134.496970
3409.384402 -24.000000 -136.365945
3408.000000 -24.000000 -140.000000
3406.698417 -25.518513 -140.000000
3405.396835 -27.037026 -140.000000
3404.095252 -28.555540 -140.000000
3402.793669 -30.074053 -140.000000
3401.492086 -31.592566 -140.000000
3400.190504 -33.111079 -140.000000
3398.888921 -34.629592 -140.000000
3397.587338 -36.148106 -140.000000
3396.285755 -37.666619 -140.000000
3394.984173 -39.185132 -140.000000
3393.682590 -40.703645 -140.000000
3392.381007 -42.222158 -140.000000
3391.079424 -43.740672 -140.000000
3389.777842 -45.259185 -140.000000
3388.476259 -46.777698 -140.000000
3387.174676 -48.296211 -140.000000
3385.873093 -49.814724 -140.000000
3384.571511 -51.333238 -140.000000
3383.269928 -52.851751 -140.000000
3381.968345 -54.370264 -140.000000
3380.666762 -55.888777 -140.000000
3379.365180 -57.407291 -140.000000
3378.063597 -58.925804 -140.000000
3376.762014 -60.444317 -140.000000
3375.460431 -61.962830 -140.000000
3374.158849 -63.481343 -140.000000
3372.857266 -64.999857 -140.000000
3371.555683 -66.518370 -140.000000
3370.254100 -68.036883 -140.000000
3368.952518 -69.555396 -140.000000
3367.650935 -71.073909 -140.000000
3366.349352 -72.592423 -140.000000
3365.047769 -74.110936 -140.000000
3363.746187 -75.629449 -140.000000
3362.444604 -77.147962 -140.000000
3360.000000 -80.000000 -140.000000
3359.940913 -81.999127 -140.000000
3359.881825 -83.998254 -140.000000
3359.822738 -85.997381 -140.000000
3359.763650 -87.996508 -140.000000
3359.704563 -89.995635 -140.000000
3359.645475 -91.994762 -140.000000
3359.586388 -93.993889 -140.000000
3359.527300 -95.993016 -140.000000
3359.468213 -97.992143 -140.000000
3359.409125 -99.991270 -140.000000
3359.350038 -101.990397 -140.000000
3359.290950 -103.989524 -140.000000
3359.231863 -105.988651 -140.000000
3359.172775 -107.987778 -140.000000
3359.113688 -109.986905 -140.000000
3359.054600 -111.986032 -140.000000
3358.995513 -113.985159 -140.000000
3358.936425 -115.984286 -140.000000
3358.877338 -117.983413 -140.000000
3358.818250 -119.982540 -140.000000
3358.759163 -121.981667 -140.000000
3358.700075 -123.980793 -140.000000
3358.640988 -125.979920 -140.000000
3358.581900 -127.979047 -140.000000
3358.522813 -129.978174 -140.000000
3358.463725 -131.977301 -140.000000
3358.404638 -133.976428 -140.000000
3358.345550 -135.975555 -140.000000
3358.286463 -137.974682 -140.000000
3358.227375 -139.973809 -140.000000
3358.168288 -141.972936 -140.000000
3358.109200 -143.972063 -140.000000
3358.050113 -145.971190 -140.000000
3357.991025 -147.970317 -140.000000
3357.931938 -149.969444 -140.000000
3357.872850 -151.968571 -140.000000
3357.813763 -153.967698 -140.000000
3357.754675 -155.966825 -140.000000
3357.695588 -157.965952 -140.000000
3357.636500 -159.965079 -140.000000
3357.577413 -161.964206 -140.000000
3357.518325 -163.963333 -140.000000
3357.459238 -165.962460 -140.000000
3357.400150 -167.961587 -140.000000
3357.341063 -169.960714 -140.000000
3357.281975 -171.959841 -140.000000
3357.222888 -173.958968 -140.000000
3357.163800 -175.958095 -140.000000
3357.104713 -177.957222 -140.000000
3357.045625 -179.956349 -140.000000
3356.986538 -181.955476 -140.000000
3356.927450 -183.954603 -140.000000
3356.868363 -185.953730 -140.000000
3356.809275 -187.952857 -140.000000
3356.750188 -189.951984 -140.000000
3356.691100 -191.951111 -140.000000
3356.632013 -193.950238 -140.000000
3356.572925 -195.949365 -140.000000
3356.513838 -197.948492 -140.000000
3356.454750 -199.947619 -140.000000
3356.395663 -201.946746 -140.000000
3356.336575 -203.945873 -140.000000
3356.277488 -205.945000 -140.000000
3356.218400 -207.944126 -140.000000
3356.159313 -209.943253 -140.000000
3356.100225 -211.942380 -140.000000
3356.041138 -213.941507 -140.000000
3355.982050 -215.940634 -140.000000
3355.922963 -217.939761 -140.000000
3355.863875 -219.938888 -140.000000
3355.804788 -221.938015 -140.000000
3355.745700 -223.937142 -140.000000
3355.686613 -225.936269 -140.000000
3355.627525 -227.935396 -140.000000
3355.568438 -229.934523 -140.000000
3355.509350 -231.933650 -140.000000
3355.450263 -233.932777 -140.000000
3355.391175 -235.931904 -140.000000
3355.332088 -237.931031 -140.000000
3355.273000 -239.930158 -140.000000
3355.213913 -241.929285 -140.000000
3355.154825 -243.928412 -140.000000
3355.095738 -245.927539 -140.000000
3355.036650 -247.926666 -140.000000
3354.977563 -249.925793 -140.000000
3354.918475 -251.924920 -140.000000
3354.859388 -253.924047 -140.000000
3354.800300 -255.923174 -140.000000
3354.741213 -257.922301 -140.000000
3354.682125 -259.921428 -140.000000
3354.623038 -261.920555 -140.000000
3354.563950 -263.919682 -140.000000
3354.504863 -265.918809 -140.000000
3354.445775 -267.917936 -140.000000
3354.386688 -269.917063 -140.000000
3354.327600 -271.916190 -140.000000
3354.268513 -273.915317 -140.000000
3354.209425 -275.914444 -140.000000
3354.150338 -277.913571 -140.000000
3354.091250 -279.912698 -140.000000
3354.032163 -281.911825 -140.000000
3353.973075 -283.910952 -140.000000
3353.913988 -285.910079 -140.000000
3353.854900 -287.909206 -140.000000
3353.795813 -289.908333 -140.000000
3353.736725 -291.907459 -140.000000
3353.677638 -293.906586 -140.000000
3353.618550 -295.905713 -140.000000
3353.559463 -297.904840 -140.000000
3353.500375 -299.903967 -140.000000
3353.441288 -301.903094 -140.000000
3353.382200 -303.902221 -140.000000
3353.323113 -305.901348 -140.000000
3353.264025 -307.900475 -140.000000
3353.204938 -309.899602 -140.000000
3353.145850 -311.898729 -140.000000
3353.086763 -313.897856 -140.000000
3353.027675 -315.896983 -140.000000
3352.968588 -317.896110 -140.000000
3352.909500 -319.895237 -140.000000
3352.850413 -321.894364 -140.000000
3352.791325 -323.893491 -140.000000
3352.732238 -325.892618 -140.000000
3352.673150 -327.891745 -140.000000
3352.614063 -329.890872 -140.000000
3352.554975 -331.889999 -140.000000
3352.495888 -333.889126 -140.000000
3352.436800 -335.888253 -140.000000
3352.377713 -337.887380 -140.000000
3352.318625 -339.886507 -140.000000
3352.259538 -341.885634 -140.000000
3352.200450 -343.884761 -140.000000
3352.141363 -345.883888 -140.000000
3352.082275 -347.883015 -140.000000
3352.023188 -349.882142 -140.000000
3351.964100 -351.881269 -140.000000
3351.905013 -353.880396 -140.000000
3351.845925 -355.879523 -140.000000
3351.786838 -357.878650 -140.000000
3351.727750 -359.877777 -140.000000
3351.668663 -361.876904 -140.000000
3351.609575 -363.876031 -140.000000
3351.550488 -365.875158 -140.000000
3351.491400 -367.874285 -140.000000
3351.432313 -369.873412 -140.000000
3351.373225 -371.872539 -140.000000
3351.314138 -373.871666 -140.000000
3351.255050 -375.870793 -140.000000
3351.195963 -377.869919 -140.000000
3351.136875 -379.869046 -140.000000
3351.077788 -381.868173 -140.000000
3351.018700 -383.867300 -140.000000
3350.959613 -385.866427 -140.000000
3350.900525 -387.865554 -140.000000
3350.841438 -389.864681 -140.000000
3350.782350 -391.863808 -140.000000
3350.723263 -393.862935 -140.000000
3350.664175 -395.862062 -140.000000
3350.605088 -397.861189 -140.000000
3350.546001 -399.860316 -140.000000
3350.486913 -401.859443 -140.000000
3350.427826 -403.858570 -140.000000
3350.368738 -405.857697 -140.000000
3350.309651 -407.856824 -140.000000
3350.250563 -409.855951 -140.000000
3350.191476 -411.855078 -140.000000
3350.132388 -413.854205 -140.000000
3350.073301 -415.853332 -140.000000
3350.014213 -417.852459 -140.000000
3349.955126 -419.851586 -140.000000
3349.896038 -421.850713 -140.000000
3349.836951 -423.849840 -140.000000
3349.777863 -425.848967 -140.000000
3349.718776 -427.848094 -140.000000
3349.659688 -429.847221 -140.000000
3349.600601 -431.846348 -140.000000
3349.541513 -433.845475 -140.000000
3349.482426 -435.844602 -140.000000
3349.423338 -437.843729 -140.000000
3349.364251 -439.842856 -140.000000
3349.305163 -441.841983 -140.000000
3349.246076 -443.841110 -140.000000
3349.186988 -445.840237 -140.000000
3349.127901 -447.839364 -140.000000
3349.068813 -449.838491 -140.000000
3349.009726 -451.837618 -140.000000
3348.950638 -453.836745 -140.000000
3348.891551 -455.835872 -140.000000
3348.832463 -457.834999 -140.000000
3348.773376 -459.834126 -140.000000
3348.714288 -461.833252 -140.000000
3348.655201 -463.832379 -140.000000
3348.596113 -465.831506 -140.000000
3348.537026 -467.830633 -140.000000
3348.477938 -469.829760 -140.000000
3348.418851 -471.828887 -140.000000
3348.359763 -473.828014 -140.000000
3348.300676 -475.827141 -140.000000
3348.241588 -477.826268 -140.000000
3348.182501 -479.825395 -140.000000
3348.123413 -481.824522 -140.000000
3348.064326 -483.823649 -140.000000
3348.005238 -485.822776 -140.000000
3347.946151 -487.821903 -140.000000
3347.887063 -489.821030 -140.000000
3347.827976 -491.820157 -140.000000
3347.768888 -493.819284 -140.000000
3347.709801 -495.818411 -140.000000
3347.650713 -497.817538 -140.000000
3347.591626 -499.816665 -140.000000
3347.532538 -501.815792 -140.000000
3347.473451 -503.814919 -140.000000
3347.414363 -505.814046 -140.000000
3347.355276 -507.813173 -140.000000
3347.296188 -509.812300 -140.000000
3347.237101 -511.811427 -140.000000
3347.178013 -513.810554 -140.000000
3347.118926 -515.809681 -140.000000
3347.059838 -517.808808 -140.000000
3347.000751 -519.807935 -140.000000
3346.941663 -521.807062 -140.000000
3346.882576 -523.806189 -140.000000
3346.823488 -525.805316 -140.000000
3346.764401 -527.804443 -140.000000
3346.705313 -529.803570 -140.000000
3346.646226 -531.802697 -140.000000
3346.587138 -533.801824 -140.000000
3346.528051 -535.800951 -140.000000
3346.468963 -537.800078 -140.000000
3346.409876 -539.799205 -140.000000
3346.350788 -541.798332 -140.000000
3346.291701 -543.797459 -140.000000
3346.232613 -545.796585 -140.000000
3346.173526 -547.795712 -140.000000
3346.114438 -549.794839 -140.000000
3346.055351 -551.793966 -140.000000
3345.996263 -553.793093 -140.000000
3345.937176 -555.792220 -140.000000
3345.878088 -557.791347 -140.000000
3345.819001 -559.790474 -140.000000
3345.759913 -561.789601 -140.000000
3345.700826 -563.788728 -140.000000
3345.641738 -565.787855 -140.000000
3345.582651 -567.786982 -140.000000
3345.523563 -569.786109 -140.000000
3345.464476 -571.785236 -140.000000
3345.405388 -573.784363 -140.000000
3345.346301 -575.783490 -140.000000
3345.287213 -577.782617 -140.000000
3345.228126 -579.781744 -140.000000
3345.169038 -581.780871 -140.000000
3345.109951 -583.779998 -140.000000
3345.050863 -585.779125 -140.000000
3344.991776 -587.778252 -140.000000
3344.932688 -589.777379 -140.000000
3344.873601 -591.776506 -140.000000
3344.814513 -593.775633 -140.000000
3344.755426 -595.774760 -140.000000
3344.696338 -597.773887 -140.000000
3344.637251 -599.773014 -140.000000
3344.578163 -601.772141 -140.000000
3344.519076 -603.771268 -140.000000
3344.459988 -605.770395 -140.000000
3344.400901 -607.769522 -140.000000
3344.341813 -609.768649 -140.000000
3344.282726 -611.767776 -140.000000
3344.223638 -613.766903 -140.000000
3344.164551 -615.766030 -140.000000
3344.105463 -617.765157 -140.000000
3344.046376 -619.764284 -140.000000
3343.987288 -621.763411 -140.000000
3343.928201 -623.762538 -140.000000
3343.869113 -625.761665 -140.000000
3343.810026 -627.760792 -140.000000
3343.750938 -629.759919 -140.000000
3343.691851 -631.759045 -140.000000
3343.632763 -633.758172 -140.000000
3343.573676 -635.757299 -140.000000
3343.514588 -637.756426 -140.000000
3343.455501 -639.755553 -140.000000
3343.396413 -641.754680 -140.000000
3343.337326 -643.753807 -140.000000
3343.278238 -645.752934 -140.000000
3343.219151 -647.752061 -140.000000
3343.160063 -649.751188 -140.000000
3343.100976 -651.750315 -140.000000
3343.041888 -653.749442 -140.000000
3342.982801 -655.748569 -140.000000
3342.923713 -657.747696 -140.000000
3342.864626 -659.746823 -140.000000
3342.805538 -661.745950 -140.000000
3342.746451 -663.745077 -140.000000
3342.687363 -665.744204 -140.000000
3342.628276 -667.743331 -140.000000
3342.569188 -669.742458 -140.000000
3342.510101 -671.741585 -140.000000
3342.451013 -673.740712 -140.000000
3342.391926 -675.739839 -140.000000
3342.332838 -677.738966 -140.000000
3342.273751 -679.738093 -140.000000
3342.214663 -681.737220 -140.000000
3342.155576 -683.736347 -140.000000
3342.096488 -685.735474 -140.000000
3342.037401 -687.734601 -140.000000
3341.978313 -689.733728 -140.000000
3341.919226 -691.732855 -140.000000
3341.860138 -693.731982 -140.000000
3341.801051 -695.731109 -140.000000
3341.741963 -697.730236 -140.000000
3341.682876 -699.729363 -140.000000
3341.623788 -701.728490 -140.000000
3341.564701 -703.727617 -140.000000
3341.505613 -705.726744 -140.000000
3341.446526 -707.725871 -140.000000
3341.387438 -709.724998 -140.000000
3341.328351 -711.724125 -140.000000
3341.269264 -713.723252 -140.000000
3341.210176 -715.722378 -140.000000
3341.151089 -717.721505 -140.000000
3341.092001 -719.720632 -140.000000
3341.032914 -721.719759 -140.000000
3340.973826 -723.718886 -140.000000
3340.914739 -725.718013 -140.000000
3340.855651 -727.717140 -140.000000
3340.796564 -729.716267 -140.000000
3340.737476 -731.715394 -140.000000
3340.678389 -733.714521 -140.000000
3340.619301 -735.713648 -140.000000
3340.560214 -737.712775 -140.000000
3340.501126 -739.711902 -140.000000
3340.442039 -741.711029 -140.000000
3340.382951 -743.710156 -140.000000
3340.323864 -745.709283 -140.000000
3340.264776 -747.708410 -140.000000
3340.205689 -749.707537 -140.000000
3340.146601 -751.706664 -140.000000
3340.087514 -753.705791 -140.000000
3340.028426 -755.704918 -140.000000
3339.969339 -757.704045 -140.000000
3339.910251 -759.703172 -140.000000
3339.851164 -761.702299 -140.000000
3339.792076 -763.701426 -140.000000
3339.732989 -765.700553 -140.000000
3339.673901 -767.699680 -140.000000
3339.614814 -769.698807 -140.000000
3339.555726 -771.697934 -140.000000
3339.496639 -773.697061 -140.000000
3339.437551 -775.696188 -140.000000
3339.378464 -777.695315 -140.000000
3339.319376 -779.694442 -140.000000
3339.260289 -781.693569 -140.000000
3339.201201 -783.692696 -140.000000
3339.142114 -785.691823 -140.000000
3339.083026 -787.690950 -140.000000
3339.023939 -789.690077 -140.000000
3338.964851 -791.689204 -140.000000
3338.905764 -793.688331 -140.000000
3338.846676 -795.687458 -140.000000
3338.787589 -797.686585 -140.000000
3338.728501 -799.685711 -140.000000
3338.669414 -801.684838 -140.000000
3338.610326 -803.683965 -140.000000
3338.551239 -805.683092 -140.000000
3338.492151 -807.682219 -140.000000
3338.433064 -809.681346 -140.000000
3338.373976 -811.680473 -140.000000
3338.314889 -813.679600 -140.000000
3338.255801 -815.678727 -140.000000
3338.196714 -817.677854 -140.000000
3338.137626 -819.676981 -140.000000
3338.078539 -821.676108 -140.000000
3338.019451 -823.675235 -140.000000
3337.960364 -825.674362 -140.000000
3337.901276 -827.673489 -140.000000
3337.842189 -829.672616 -140.000000
3337.783101 -831.671743 -140.000000
3337.724014 -833.670870 -140.000000
3337.664926 -835.669997 -140.000000
3337.605839 -837.669124 -140.000000
3337.546751 -839.668251 -140.000000
3337.487664 -841.667378 -140.000000
3337.428576 -843.666505 -140.000000
3337.369489 -845.665632 -140.000000
3337.310401 -847.664759 -140.000000
3337.251314 -849.663886 -140.000000
3337.192226 -851.663013 -140.000000
3337.133139 -853.662140 -140.000000
3337.074051 -855.661267 -140.000000
3337.014964 -857.660394 -140.000000
3336.955876 -859.659521 -140.000000
3336.896789 -861.658648 -140.000000
3336.837701 -863.657775 -140.000000
3336.778614 -865.656902 -140.000000
3336.719526 -867.656029 -140.000000
3336.660439 -869.655156 -140.000000
3336.601351 -871.654283 -140.000000
3336.542264 -873.653410 -140.000000
3336.483176 -875.652537 -140.000000
3336.424089 -877.651664 -140.000000
3336.365001 -879.650791 -140.000000
3336.305914 -881.649918 -140.000000
3336.246826 -883.649045 -140.000000
3336.187739 -885.648171 -140.000000
3336.128651 -887.647298 -140.000000
3336.069564 -889.646425 -140.000000
3336.010476 -891.645552 -140.000000
3335.951389 -893.644679 -140.000000
3335.892301 -895.643806 -140.000000
3335.833214 -897.642933 -140.000000
3335.774126 -899.642060 -140.000000
3335.715039 -901.641187 -140.000000
3335.655951 -903.640314 -140.000000
3335.596864 -905.639441 -140.000000
3335.537776 -907.638568 -140.000000
3335.478689 -909.637695 -140.000000
3335.419601 -911.636822 -140.000000
3335.360514 -913.635949 -140.000000
3335.301426 -915.635076 -140.000000
3335.242339 -917.634203 -140.000000
3335.183251 -919.633330 -140.000000
3335.124164 -921.632457 -140.000000
3335.065076 -923.631584 -140.000000
3335.005989 -925.630711 -140.000000
3334.946901 -927.629838 -140.000000
3334.887814 -929.628965 -140.000000
3334.828726 -931.628092 -140.000000
3334.769639 -933.627219 -140.000000
3334.710551 -935.626346 -140.000000
3334.651464 -937.625473 -140.000000
3334.592376 -939.624600 -140.000000
3334.533289 -941.623727 -140.000000
3334.474201 -943.622854 -140.000000
3334.415114 -945.621981 -140.000000
3334.356026 -947.621108 -140.000000
3334.296939 -949.620235 -140.000000
3334.237851 -951.619362 -140.000000
3334.178764 -953.618489 -140.000000
3334.119676 -955.617616 -140.000000
3334.060589 -957.616743 -140.000000
3334.001501 -959.615870 -140.000000
3333.942414 -961.614997 -140.000000
3333.883326 -963.614124 -140.000000
3333.824239 -965.613251 -140.000000
3333.765151 -967.612378 -140.000000
3333.706064 -969.611504 -140.000000
3333.646976 -971.610631 -140.000000
3333.587889 -973.609758 -140.000000
3333.528801 -975.608885 -140.000000
3333.469714 -977.608012 -140.000000
3333.410626 -979.607139 -140.000000
3333.351539 -981.606266 -140.000000
3333.292451 -983.605393 -140.000000
3333.233364 -985.604520 -140.000000
3333.174276 -987.603647 -140.000000
3333.115189 -989.602774 -140.000000
3333.056101 -991.601901 -140.000000
3332.997014 -993.601028 -140.000000
3332.937926 -995.600155 -140.000000
3332.878839 -997.599282 -140.000000
3332.819751 -999.598409 -140.000000
3332.760664 -1001.597536 -140.000000
3332.701576 -1003.596663 -140.000000
3332.642489 -1005.595790 -140.000000
3332.583401 -1007.594917 -140.000000
3332.524314 -1009.594044 -140.000000
3332.465226 -1011.593171 -140.000000
3332.406139 -1013.592298 -140.000000
3332.347051 -1015.591425 -140.000000
3332.287964 -1017.590552 -140.000000
3332.228876 -1019.589679 -140.000000
3332.169789 -1021.588806 -140.000000
3332.110701 -1023.587933 -140.000000
3332.051614 -1025.587060 -140.000000
3331.992526 -1027.586187 -140.000000
3331.933439 -1029.585314 -140.000000
3331.874352 -1031.584441 -140.000000
3331.815264 -1033.583568 -140.000000
3331.756177 -1035.582695 -140.000000
3331.697089 -1037.581822 -140.000000
3331.638002 -1039.580949 -140.000000
3331.578914 -1041.580076 -140.000000
3331.519827 -1043.579203 -140.000000
3331.460739 -1045.578330 -140.000000
3331.401652 -1047.577457 -140.000000
3331.342564 -1049.576584 -140.000000
3331.283477 -1051.575711 -140.000000
3331.224389 -1053.574838 -140.000000
3331.165302 -1055.573964 -140.000000
3331.106214 -1057.573091 -140.000000
3331.047127 -1059.572218 -140.000000
3330.988039 -1061.571345 -140.000000
3330.928952 -1063.570472 -140.000000
3330.869864 -1065.569599 -140.000000
3330.810777 -1067.568726 -140.000000
3330.751689 -1069.567853 -140.000000
3330.692602 -1071.566980 -140.000000
3330.633514 -1073.566107 -140.000000
3330.574427 -1075.565234 -140.000000
3330.515339 -1077.564361 -140.000000
3330.456252 -1079.563488 -140.000000
3330.397164 -1081.562615 -140.000000
3330.338077 -1083.561742 -140.000000
3330.278989 -1085.560869 -140.000000
3330.219902 -1087.559996 -140.000000
3330.160814 -1089.559123 -140.000000
3330.101727 -1091.558250 -140.000000
3330.042639 -1093.557377 -140.000000
3329.983552 -1095.556504 -140.000000
3329.924464 -1097.555631 -140.000000
3329.865377 -1099.554758 -140.000000
3329.806289 -1101.553885 -140.000000
3329.747202 -1103.553012 -140.000000
3329.688114 -1105.552139 -140.000000
3329.629027 -1107.551266 -140.000000
3329.569939 -1109.550393 -140.000000
3329.510852 -1111.549520 -140.000000
3329.451764 -1113.548647 -140.000000
3329.392677 -1115.547774 -140.000000
3329.333589 -1117.546901 -140.000000
3329.274502 -1119.546028 -140.000000
3329.215414 -1121.545155 -140.000000
3329.156327 -1123.544282 -140.000000
3329.097239 -1125.543409 -140.000000
3329.038152 -1127.542536 -140.000000
3328.979064 -1129.541663 -140.000000
3328.919977 -1131.540790 -140.000000
3328.860889 -1133.539917 -140.000000
3328.801802 -1135.539044 -140.000000
3328.742714 -1137.538171 -140.000000
3328.683627 -1139.537297 -140.000000
3328.624539 -1141.536424 -140.000000
3328.565452 -1143.535551 -140.000000
3328.506364 -1145.534678 -140.000000
3328.447277 -1147.533805 -140.000000
3328.388189 -1149.532932 -140.000000
3328.329102 -1151.532059 -140.000000
3328.270014 -1153.531186 -140.000000
3328.210927 -1155.530313 -140.000000
3328.151839 -1157.529440 -140.000000
3328.092752 -1159.528567 -140.000000
3328.033664 -1161.527694 -140.000000
3327.974577 -1163.526821 -140.000000
3327.915489 -1165.525948 -140.000000
3327.856402 -1167.525075 -140.000000
3327.797314 -1169.524202 -140.000000
3327.738227 -1171.523329 -140.000000
3327.679139 -1173.522456 -140.000000
3327.620052 -1175.521583 -140.000000
3327.560964 -1177.520710 -140.000000
3327.501877 -1179.519837 -140.000000
3327.442789 -1181.518964 -140.000000
3327.383702 -1183.518091 -140.000000
3327.324614 -1185.517218 -140.000000
3327.265527 -1187.516345 -140.000000
3327.206439 -1189.515472 -140.000000
3327.147352 -1191.514599 -140.000000
3327.088264 -1193.513726 -140.000000
3327.029177 -1195.512853 -140.000000
3326.970089 -1197.511980 -140.000000
3326.911002 -1199.511107 -140.000000
3326.851914 -1201.510234 -140.000000
3326.792827 -1203.509361 -140.000000
3326.733739 -1205.508488 -140.000000
3326.674652 -1207.507615 -140.000000
3326.615564 -1209.506742 -140.000000
3326.556477 -1211.505869 -140.000000
3326.497389 -1213.504996 -140.000000
3326.438302 -1215.504123 -140.000000
3326.379214 -1217.503250 -140.000000
3326.320127 -1219.502377 -140.000000
3326.261039 -1221.501504 -140.000000
3326.201952 -1223.500630 -140.000000
3326.142864 -1225.499757 -140.000000
3326.083777 -1227.498884 -140.000000
3326.024689 -1229.498011 -140.000000
3325.965602 -1231.497138 -140.000000
3325.906514 -1233.496265 -140.000000
3325.847427 -1235.495392 -140.000000
3325.788339 -1237.494519 -140.000000
3325.729252 -1239.493646 -140.000000
3325.670164 -1241.492773 -140.000000
3325.611077 -1243.491900 -140.000000
3325.551989 -1245.491027 -140.000000
3325.492902 -1247.490154 -140.000000
3325.433814 -1249.489281 -140.000000
3325.374727 -1251.488408 -140.000000
3325.315639 -1253.487535 -140.000000
3325.256552 -1255.486662 -140.000000
3325.197464 -1257.485789 -140.000000
3325.138377 -1259.484916 -140.000000
3325.079289 -1261.484043 -140.000000
3325.020202 -1263.483170 -140.000000
3324.961114 -1265.482297 -140.000000
3324.902027 -1267.481424 -140.000000
3324.842939 -1269.480551 -140.000000
3324.783852 -1271.479678 -140.000000
3324.724764 -1273.478805 -140.000000
3324.665677 -1275.477932 -140.000000
3324.606589 -1277.477059 -140.000000
3324.547502 -1279.476186 -140.000000
3324.488414 -1281.475313 -140.000000
3324.429327 -1283.474440 -140.000000
3324.370239 -1285.473567 -140.000000
3324.311152 -1287.472694 -140.000000
3324.252064 -1289.471821 -140.000000
3324.192977 -1291.470948 -140.000000
3324.133889 -1293.470075 -140.000000
3324.074802 -1295.469202 -140.000000
3324.015714 -1297.468329 -140.000000
3323.956627 -1299.467456 -140.000000
3323.897539 -1301.466583 -140.000000
3323.838452 -1303.465710 -140.000000
3323.779364 -1305.464837 -140.000000
3323.720277 -1307.463964 -140.000000
3323.661189 -1309.463090 -140.000000
3323.602102 -1311.462217 -140.000000
3323.543014 -1313.461344 -140.000000
3323.483927 -1315.460471 -140.000000
3323.424839 -1317.459598 -140.000000
3323.365752 -1319.458725 -140.000000
3323.306664 -1321.457852 -140.000000
3323.247577 -1323.456979 -140.000000
3323.188489 -1325.456106 -140.000000
3323.129402 -1327.455233 -140.000000
3323.070314 -1329.454360 -140.000000
3323.011227 -1331.453487 -140.000000
3322.952139 -1333.452614 -140.000000
3322.893052 -1335.451741 -140.000000
3322.833964 -1337.450868 -140.000000
3322.774877 -1339.449995 -140.000000
3322.715789 -1341.449122 -140.000000
3322.656702 -1343.448249 -140.000000
3322.597615 -1345.447376 -140.000000
3322.538527 -1347.446503 -140.000000
3322.479440 -1349.445630 -140.000000
3322.420352 -1351.444757 -140.000000
3322.361265 -1353.443884 -140.000000
3322.302177 -1355.443011 -140.000000
3322.243090 -1357.442138 -140.000000
3322.184002 -1359.441265 -140.000000
3322.124915 -1361.440392 -140.000000
3322.065827 -1363.439519 -140.000000
3322.006740 -1365.438646 -140.000000
3321.947652 -1367.437773 -140.000000
3321.888565 -1369.436900 -140.000000
3321.829477 -1371.436027 -140.000000
3321.770390 -1373.435154 -140.000000
3321.711302 -1375.434281 -140.000000
3321.652215 -1377.433408 -140.000000
3321.593127 -1379.432535 -140.000000
3321.534040 -1381.431662 -140.000000
3321.474952 -1383.430789 -140.000000
3321.415865 -1385.429916 -140.000000
3321.356777 -1387.429043 -140.000000
3321.297690 -1389.428170 -140.000000
3321.238602 -1391.427297 -140.000000
3321.179515 -1393.426423 -140.000000
3321.120427 -1395.425550 -140.000000
3321.061340 -1397.424677 -140.000000
3321.002252 -1399.423804 -140.000000
3320.943165 -1401.422931 -140.000000
3320.884077 -1403.422058 -140.000000
3320.824990 -1405.421185 -140.000000
3320.765902 -1407.420312 -140.000000
3320.706815 -1409.419439 -140.000000
3320.647727 -1411.418566 -140.000000
3320.588640 -1413.417693 -140.000000
3320.529552 -1415.416820 -140.000000
3320.470465 -1417.415947 -140.000000
3320.411377 -1419.415074 -140.000000
3320.352290 -1421.414201 -140.000000
3320.293202 -1423.413328 -140.000000
3320.234115 -1425.412455 -140.000000
3320.175027 -1427.411582 -140.000000
3320.115940 -1429.410709 -140.000000
3320.056852 -1431.409836 -140.000000
3319.997765 -1433.408963 -140.000000
3319.938677 -1435.408090 -140.000000
3319.879590 -1437.407217 -140.000000
3319.820502 -1439.406344 -140.000000
3319.761415 -1441.405471 -140.000000
3319.702327 -1443.404598 -140.000000
3319.643240 -1445.403725 -140.000000
3319.584152 -1447.402852 -140.000000
3319.525065 -1449.401979 -140.000000
3319.465977 -1451.401106 -140.000000
3319.406890 -1453.400233 -140.000000
3319.347802 -1455.399360 -140.000000
3319.288715 -1457.398487 -140.000000
3319.229627 -1459.397614 -140.000000
3319.170540 -1461.396741 -140.000000
3319.111452 -1463.395868 -140.000000
3319.052365 -1465.394995 -140.000000
3318.993277 -1467.394122 -140.000000
3318.934190 -1469.393249 -140.000000
3318.875102 -1471.392376 -140.000000
3318.816015 -1473.391503 -140.000000
3318.756927 -1475.390630 -140.000000
3318.697840 -1477.389756 -140.000000
3318.638752 -1479.388883 -140.000000
3318.579665 -1481.388010 -140.000000
3318.520577 -1483.387137 -140.000000
3318.461490 -1485.386264 -140.000000
3318.402402 -1487.385391 -140.000000
3318.343315 -1489.384518 -140.000000
3318.284227 -1491.383645 -140.000000
3318.225140 -1493.382772 -140.000000
3318.166052 -1495.381899 -140.000000
3318.106965 -1497.381026 -140.000000
3318.047877 -1499.380153 -140.000000
3317.988790 -1501.379280 -140.000000
3317.929702 -1503.378407 -140.000000
3317.870615 -1505.377534 -140.000000
3317.811527 -1507.376661 -140.000000
3317.752440 -1509.375788 -140.000000
3317.693352 -1511.374915 -140.000000
3317.634265 -1513.374042 -140.000000
3317.575177 -1515.373169 -140.000000
3317.516090 -1517.372296 -140.000000
3317.457002 -1519.371423 -140.000000
3317.397915 -1521.370550 -140.000000
3317.338827 -1523.369677 -140.000000
3317.279740 -1525.368804 -140.000000
3317.220652 -1527.367931 -140.000000
3317.161565 -1529.367058 -140.000000
3317.102477 -1531.366185 -140.000000
3317.043390 -1533.365312 -140.000000
3316.984302 -1535.364439 -140.000000
3316.925215 -1537.363566 -140.000000
3316.866127 -1539.362693 -140.000000
3316.807040 -1541.361820 -140.000000
3316.747952 -1543.360947 -140.000000
3316.688865 -1545.360074 -140.000000
3316.629777 -1547.359201 -140.000000
3316.570690 -1549.358328 -140.000000
3316.511602 -1551.357455 -140.000000
3316.452515 -1553.356582 -140.000000
3316.393427 -1555.355709 -140.000000
3316.334340 -1557.354836 -140.000000
3316.275252 -1559.353963 -140.000000
3316.216165 -1561.353090 -140.000000
3316.157077 -1563.352216 -140.000000
3316.097990 -1565.351343 -140.000000
3316.038902 -1567.350470 -140.000000
3315.979815 -1569.349597 -140.000000
3315.920727 -1571.348724 -140.000000
3315.861640 -1573.347851 -140.000000
3315.802552 -1575.346978 -140.000000
3315.743465 -1577.346105 -140.000000
3315.684377 -1579.345232 -140.000000
3315.625290 -1581.344359 -140.000000
3315.566202 -1583.343486 -140.000000
3315.507115 -1585.342613 -140.000000
3315.448027 -1587.341740 -140.000000
3315.388940 -1589.340867 -140.000000
3315.329852 -1591.339994 -140.000000
3315.270765 -1593.339121 -140.000000
3315.211677 -1595.338248 -140.000000
3315.152590 -1597.337375 -140.000000
3315.093502 -1599.336502 -140.000000
3315.034415 -1601.335629 -140.000000
3314.975327 -1603.334756 -140.000000
3314.916240 -1605.333883 -140.000000
3314.857152 -1607.333010 -140.000000
3314.798065 -1609.332137 -140.000000
3314.738977 -1611.331264 -140.000000
3314.679890 -1613.330391 -140.000000
3314.620802 -1615.329518 -140.000000
3314.561715 -1617.328645 -140.000000
3314.502627 -1619.327772 -140.000000
3314.443540 -1621.326899 -140.000000
3314.384452 -1623.326026 -140.000000
3314.325365 -1625.325153 -140.000000
3314.266277 -1627.324280 -140.000000
3314.207190 -1629.323407 -140.000000
3314.148102 -1631.322534 -140.000000
3314.089015 -1633.321661 -140.000000
3314.029927 -1635.320788 -140.000000
3313.970840 -1637.319915 -140.000000
3313.911752 -1639.319042 -140.000000
3313.852665 -1641.318169 -140.000000
3313.793577 -1643.317296 -140.000000
3313.734490 -1645.316423 -140.000000
3313.675402 -1647.315549 -140.000000
3313.616315 -1649.314676 -140.000000
3313.557227 -1651.313803 -140.000000
3313.498140 -1653.312930 -140.000000
3313.439052 -1655.312057 -140.000000
3313.379965 -1657.311184 -140.000000
3313.320877 -1659.310311 -140.000000
3313.261790 -1661.309438 -140.000000
3313.202703 -1663.308565 -140.000000
3313.143615 -1665.307692 -140.000000
3313.084528 -1667.306819 -140.000000
3313.025440 -1669.305946 -140.000000
3312.966353 -1671.305073 -140.000000
3312.907265 -1673.304200 -140.000000
3312.848178 -1675.303327 -140.000000
3312.789090 -1677.302454 -140.000000
3312.730003 -1679.301581 -140.000000
3312.670915 -1681.300708 -140.000000
3312.611828 -1683.299835 -140.000000
3312.552740 -1685.298962 -140.000000
3312.493653 -1687.298089 -140.000000
3312.434565 -1689.297216 -140.000000
3312.375478 -1691.296343 -140.000000
3312.316390 -1693.295470 -140.000000
3312.257303 -1695.294597 -140.000000
3312.198215 -1697.293724 -140.000000
3312.139128 -1699.292851 -140.000000
3312.080040 -1701.291978 -140.000000
3312.000000 -1704.000000 -140.000000
3310.016689 -1704.257830 -140.000000
3308.033378 -1704.515661 -140.000000
3306.050066 -1704.773491 -140.000000
3304.066755 -1705.031322 -140.000000
3302.083444 -1705.289152 -140.000000
3300.100133 -1705.546983 -140.000000
3298.116821 -1705.804813 -140.000000
3296.133510 -1706.062644 -140.000000
3294.150199 -1706.320474 -140.000000
3292.166888 -1706.578305 -140.000000
3290.183576 -1706.836135 -140.000000
3288.200265 -1707.093966 -140.000000
3286.216954 -1707.351796 -140.000000
3284.233643 -1707.609626 -140.000000
3282.250331 -1707.867457 -140.000000
3280.267020 -1708.125287 -140.000000
3278.283709 -1708.383118 -140.000000
3276.300398 -1708.640948 -140.000000
3274.317087 -1708.898779 -140.000000
3272.333775 -1709.156609 -140.000000
3270.350464 -1709.414440 -140.000000
3268.367153 -1709.672270 -140.000000
3266.383842 -1709.930101 -140.000000
3264.400530 -1710.187931 -140.000000
3262.417219 -1710.445762 -140.000000
3260.433908 -1710.703592 -140.000000
3258.450597 -1710.961422 -140.000000
3256.467285 -1711.219253 -140.000000
3254.483974 -1711.477083 -140.000000
3252.500663 -1711.734914 -140.000000
3250.517352 -1711.992744 -140.000000
3248.534040 -1712.250575 -140.000000
3246.550729 -1712.508405 -140.000000
3244.567418 -1712.766236 -140.000000
3242.584107 -1713.024066 -140.000000
3240.600796 -1713.281897 -140.000000
3238.617484 -1713.539727 -140.000000
3236.634173 -1713.797557 -140.000000
3234.650862 -1714.055388 -140.000000
3232.667551 -1714.313218 -140.000000
3230.684239 -1714.571049 -140.000000
3228.700928 -1714.828879 -140.000000
3226.717617 -1715.086710 -140.000000
3224.734306 -1715.344540 -140.000000
3222.750994 -1715.602371 -140.000000
3220.767683 -1715.860201 -140.000000
3218.784372 -1716.118032 -140.000000
3216.801061 -1716.375862 -140.000000
3214.817750 -1716.633693 -140.000000
3212.834438 -1716.891523 -140.000000
3210.851127 -1717.149353 -140.000000
3208.867816 -1717.407184 -140.000000
3206.884505 -1717.665014 -140.000000
3204.901193 -1717.922845 -140.000000
3202.917882 -1718.180675 -140.000000
3200.934571 -1718.438506 -140.000000
3198.951260 -1718.696336 -140.000000
3196.967948 -1718.954167 -140.000000
3194.984637 -1719.211997 -140.000000
3193.001326 -1719.469828 -140.000000
3191.018015 -1719.727658 -140.000000
3189.034703 -1719.985489 -140.000000
3187.051392 -1720.243319 -140.000000
3185.068081 -1720.501149 -140.000000
3183.084770 -1720.758980 -140.000000
3181.101459 -1721.016810 -140.000000
3179.118147 -1721.274641 -140.000000
3177.134836 -1721.532471 -140.000000
3175.151525 -1721.790302 -140.000000
3173.168214 -1722.048132 -140.000000
3171.184902 -1722.305963 -140.000000
3169.201591 -1722.563793 -140.000000
3167.218280 -1722.821624 -140.000000
3165.234969 -1723.079454 -140.000000
3163.251657 -1723.337285 -140.000000
3161.268346 -1723.595115 -140.000000
3159.285035 -1723.852945 -140.000000
3157.301724 -1724.110776 -140.000000
3155.318412 -1724.368606 -140.000000
3153.335101 -1724.626437 -140.000000
3151.351790 -1724.884267 -140.000000
3149.368479 -1725.142098 -140.000000
3147.385168 -1725.399928 -140.000000
3145.401856 -1725.657759 -140.000000
3143.418545 -1725.915589 -140.000000
3141.435234 -1726.173420 -140.000000
3139.451923 -1726.431250 -140.000000
3137.468611 -1726.689081 -140.000000
3135.485300 -1726.946911 -140.000000
3133.501989 -1727.204741 -140.000000
3131.518678 -1727.462572 -140.000000
3129.535366 -1727.720402 -140.000000
3127.552055 -1727.978233 -140.000000
3125.568744 -1728.236063 -140.000000
3123.585433 -1728.493894 -140.000000
3121.602121 -1728.751724 -140.000000
3119.618810 -1729.009555 -140.000000
3117.635499 -1729.267385 -140.000000
3115.652188 -1729.525216 -140.000000
3113.668877 -1729.783046 -140.000000
3111.685565 -1730.040877 -140.000000
3109.702254 -1730.298707 -140.000000
3107.718943 -1730.556537 -140.000000
3105.735632 -1730.814368 -140.000000
3103.752320 -1731.072198 -140.000000
3101.769009 -1731.330029 -140.000000
3099.785698 -1731.587859 -140.000000
3097.802387 -1731.845690 -140.000000
3095.819075 -1732.103520 -140.000000
3093.835764 -1732.361351 -140.000000
3091.852453 -1732.619181 -140.000000
3089.869142 -1732.877012 -140.000000
3087.885830 -1733.134842 -140.000000
3085.902519 -1733.392672 -140.000000
3083.919208 -1733.650503 -140.000000
3081.935897 -1733.908333 -140.000000
3079.952586 -1734.166164 -140.000000
3077.969274 -1734.423994 -140.000000
3075.985963 -1734.681825 -140.000000
3074.002652 -1734.939655 -140.000000
3072.019341 -1735.197486 -140.000000
3070.036029 -1735.455316 -140.000000
3068.052718 -1735.713147 -140.000000
3066.069407 -1735.970977 -140.000000
3064.086096 -1736.228808 -140.000000
3062.102784 -1736.486638 -140.000000
3060.119473 -1736.744468 -140.000000
3058.136162 -1737.002299 -140.000000
3056.152851 -1737.260129 -140.000000
3054.169539 -1737.517960 -140.000000
3052.186228 -1737.775790 -140.000000
3050.202917 -1738.033621 -140.000000
3048.219606 -1738.291451 -140.000000
3046.236295 -1738.549282 -140.000000
3044.252983 -1738.807112 -140.000000
3042.269672 -1739.064943 -140.000000
3040.286361 -1739.322773 -140.000000
3038.303050 -1739.580604 -140.000000
3036.319738 -1739.838434 -140.000000
3034.336427 -1740.096264 -140.000000
3032.353116 -1740.354095 -140.000000
3030.369805 -1740.611925 -140.000000
3028.386493 -1740.869756 -140.000000
3026.403182 -1741.127586 -140.000000
3024.419871 -1741.385417 -140.000000
3022.436560 -1741.643247 -140.000000
3020.453249 -1741.901078 -140.000000
3018.469937 -1742.158908 -140.000000
3016.486626 -1742.416739 -140.000000
3014.503315 -1742.674569 -140.000000
3012.520004 -1742.932400 -140.000000
3010.536692 -1743.190230 -140.000000
3008.553381 -1743.448060 -140.000000
3006.570070 -1743.705891 -140.000000
3004.586759 -1743.963721 -140.000000
3002.603447 -1744.221552 -140.000000
3000.620136 -1744.479382 -140.000000
2998.636825 -1744.737213 -140.000000
2996.653514 -1744.995043 -140.000000
2994.670202 -1745.252874 -140.000000
2992.686891 -1745.510704 -140.000000
2990.703580 -1745.768535 -140.000000
2988.720269 -1746.026365 -140.000000
2986.736958 -1746.284196 -140.000000
2984.753646 -1746.542026 -140.000000
2982.770335 -1746.799856 -140.000000
2980.787024 -1747.057687 -140.000000
2978.803713 -1747.315517 -140.000000
2976.820401 -1747.573348 -140.000000
2974.837090 -1747.831178 -140.000000
2972.853779 -1748.089009 -140.000000
2970.870468 -1748.346839 -140.000000
2968.887156 -1748.604670 -140.000000
2966.903845 -1748.862500 -140.000000
2964.920534 -1749.120331 -140.000000
2962.937223 -1749.378161 -140.000000
2960.953911 -1749.635992 -140.000000
2958.970600 -1749.893822 -140.000000
2956.987289 -1750.151652 -140.000000
2955.003978 -1750.409483 -140.000000
2953.020667 -1750.667313 -140.000000
2951.037355 -1750.925144 -140.000000
2949.054044 -1751.182974 -140.000000
2947.070733 -1751.440805 -140.000000
2945.087422 -1751.698635 -140.000000
2943.104110 -1751.956466 -140.000000
2941.120799 -1752.214296 -140.000000
2939.137488 -1752.472127 -140.000000
2937.154177 -1752.729957 -140.000000
2935.170865 -1752.987787 -140.000000
2933.187554 -1753.245618 -140.000000
2931.204243 -1753.503448 -140.000000
2929.220932 -1753.761279 -140.000000
2927.237620 -1754.019109 -140.000000
2925.254309 -1754.276940 -140.000000
2923.270998 -1754.534770 -140.000000
2921.287687 -1754.792601 -140.000000
2919.304376 -1755.050431 -140.000000
2917.321064 -1755.308262 -140.000000
2915.337753 -1755.566092 -140.000000
2913.354442 -1755.823923 -140.000000
2911.371131 -1756.081753 -140.000000
2909.387819 -1756.339583 -140.000000
2907.404508 -1756.597414 -140.000000
2905.421197 -1756.855244 -140.000000
2903.437886 -1757.113075 -140.000000
2901.454574 -1757.370905 -140.000000
2899.471263 -1757.628736 -140.000000
2897.487952 -1757.886566 -140.000000
2895.504641 -1758.144397 -140.000000
2893.521329 -1758.402227 -140.000000
2891.538018 -1758.660058 -140.000000
2889.554707 -1758.917888 -140.000000
2887.571396 -1759.175719 -140.000000
2885.588085 -1759.433549 -140.000000
2883.604773 -1759.691379 -140.000000
2881.621462 -1759.949210 -140.000000
2879.638151 -1760.207040 -140.000000
2877.654840 -1760.464871 -140.000000
2875.671528 -1760.722701 -140.000000
2873.688217 -1760.980532 -140.000000
2871.704906 -1761.238362 -140.000000
2869.721595 -1761.496193 -140.000000
2867.738283 -1761.754023 -140.000000
2865.754972 -1762.011854 -140.000000
2863.771661 -1762.269684 -140.000000
2861.788350 -1762.527515 -140.000000
2859.805038 -1762.785345 -140.000000
2857.821727 -1763.043175 -140.000000
2855.838416 -1763.301006 -140.000000
2853.855105 -1763.558836 -140.000000
2851.871794 -1763.816667 -140.000000
2849.888482 -1764.074497 -140.000000
2847.905171 -1764.332328 -140.000000
2845.921860 -1764.590158 -140.000000
2843.938549 -1764.847989 -140.000000
2841.955237 -1765.105819 -140.000000
2839.971926 -1765.363650 -140.000000
2837.988615 -1765.621480 -140.000000
2836.005304 -1765.879311 -140.000000
2834.021992 -1766.137141 -140.000000
2832.038681 -1766.394971 -140.000000
2830.055370 -1766.652802 -140.000000
2828.072059 -1766.910632 -140.000000
2826.088748 -1767.168463 -140.000000
2824.105436 -1767.426293 -140.000000
2822.122125 -1767.684124 -140.000000
2820.138814 -1767.941954 -140.000000
2818.155503 -1768.199785 -140.000000
2816.172191 -1768.457615 -140.000000
2814.188880 -1768.715446 -140.000000
2812.205569 -1768.973276 -140.000000
2810.222258 -1769.231107 -140.000000
2808.238946 -1769.488937 -140.000000
2806.255635 -1769.746767 -140.000000
2804.272324 -1770.004598 -140.000000
2802.289013 -1770.262428 -140.000000
2800.305701 -1770.520259 -140.000000
2798.322390 -1770.778089 -140.000000
2796.339079 -1771.035920 -140.000000
2794.355768 -1771.293750 -140.000000
2792.372457 -1771.551581 -140.000000
2790.389145 -1771.809411 -140.000000
2788.405834 -1772.067242 -140.000000
2786.422523 -1772.325072 -140.000000
2784.439212 -1772.582902 -140.000000
2782.455900 -1772.840733 -140.000000
2780.472589 -1773.098563 -140.000000
2778.489278 -1773.356394 -140.000000
2776.505967 -1773.614224 -140.000000
2774.522655 -1773.872055 -140.000000
2772.539344 -1774.129885 -140.000000
2770.556033 -1774.387716 -140.000000
2768.572722 -1774.645546 -140.000000
2766.589410 -1774.903377 -140.000000
2764.606099 -1775.161207 -140.000000
2762.622788 -1775.419038 -140.000000
2760.639477 -1775.676868 -140.000000
2758.656166 -1775.934698 -140.000000
2756.672854 -1776.192529 -140.000000
2754.689543 -1776.450359 -140.000000
2752.706232 -1776.708190 -140.000000
2750.722921 -1776.966020 -140.000000
2748.739609 -1777.223851 -140.000000
2746.756298 -1777.481681 -140.000000
2744.772987 -1777.739512 -140.000000
2742.789676 -1777.997342 -140.000000
2740.806364 -1778.255173 -140.000000
2738.823053 -1778.513003 -140.000000
2736.839742 -1778.770834 -140.000000
2734.856431 -1779.028664 -140.000000
2732.873119 -1779.286494 -140.000000
2730.889808 -1779.544325 -140.000000
2728.906497 -1779.802155 -140.000000
2726.923186 -1780.059986 -140.000000
2724.939875 -1780.317816 -140.000000
2722.956563 -1780.575647 -140.000000
2720.973252 -1780.833477 -140.000000
2718.989941 -1781.091308 -140.000000
2717.006630 -1781.349138 -140.000000
2715.023318 -1781.606969 -140.000000
2713.040007 -1781.864799 -140.000000
2711.056696 -1782.122630 -140.000000
2709.073385 -1782.380460 -140.000000
2707.090073 -1782.638290 -140.000000
2705.106762 -1782.896121 -140.000000
2703.123451 -1783.153951 -140.000000
2701.140140 -1783.411782 -140.000000
2699.156828 -1783.669612 -140.000000
2697.173517 -1783.927443 -140.000000
2695.190206 -1784.185273 -140.000000
2693.206895 -1784.443104 -140.000000
2691.223584 -1784.700934 -140.000000
2689.240272 -1784.958765 -140.000000
2687.256961 -1785.216595 -140.000000
2685.273650 -1785.474426 -140.000000
2683.290339 -1785.732256 -140.000000
2681.307027 -1785.990086 -140.000000
2679.323716 -1786.247917 -140.000000
2677.340405 -1786.505747 -140.000000
2675.357094 -1786.763578 -140.000000
2673.373782 -1787.021408 -140.000000
2671.390471 -1787.279239 -140.000000
2669.407160 -1787.537069 -140.000000
2667.423849 -1787.794900 -140.000000
2665.440537 -1788.052730 -140.000000
2663.457226 -1788.310561 -140.000000
2661.473915 -1788.568391 -140.000000
2659.490604 -1788.826222 -140.000000
2657.507293 -1789.084052 -140.000000
2655.523981 -1789.341882 -140.000000
2653.540670 -1789.599713 -140.000000
2651.557359 -1789.857543 -140.000000
