4508.000000 -1703.861870 882.819193
4508.000000 -1705.861700 882.793108
4508.000000 -1707.861530 882.767024
4508.000000 -1709.861360 882.740939
4508.000000 -1711.861190 882.714854
4508.000000 -1713.861020 882.688769
4508.000000 -1715.860850 882.662685
4508.000000 -1717.860679 882.636600
4508.000000 -1719.860509 882.610515
4508.000000 -1721.860339 882.584430
4508.000000 -1723.860169 882.558346
4508.000000 -1725.859999 882.532261
4508.000000 -1727.859829 882.506176
4508.000000 -1729.859659 882.480091
4508.000000 -1731.859489 882.454007
4508.000000 -1733.859319 882.427922
4508.000000 -1735.859148 882.401837
4508.000000 -1737.858978 882.375752
4508.000000 -1739.858808 882.349668
4508.000000 -1741.858638 882.323583
4508.000000 -1743.858468 882.297498
4508.000000 -1745.858298 882.271414
4508.000000 -1747.858128 882.245329
4508.000000 -1749.857958 882.219244
4508.000000 -1751.857788 882.193159
4508.000000 -1753.857617 882.167075
4508.000000 -1755.857447 882.140990
4508.000000 -1757.857277 882.114905
4508.000000 -1759.857107 882.088820
4508.000000 -1761.856937 882.062736
4508.000000 -1763.856767 882.036651
4508.000000 -1765.856597 882.010566
4508.000000 -1767.856427 881.984481
4508.000000 -1769.856257 881.958397
4508.000000 -1771.856086 881.932312
4508.000000 -1773.855916 881.906227
4508.000000 -1775.855746 881.880142
4508.000000 -1777.855576 881.854058
4508.000000 -1779.855406 881.827973
4508.000000 -1781.855236 881.801888
4508.000000 -1783.855066 881.775803
4508.000000 -1785.854896 881.749719
4508.000000 -1787.854726 881.723634
4508.000000 -1789.854555 881.697549
4508.000000 -1791.854385 881.671465
4508.000000 -1793.854215 881.645380
4508.000000 -1795.854045 881.619295
4508.000000 -1797.853875 881.593210
4508.000000 -1799.853705 881.567126
4508.000000 -1801.853535 881.541041
4508.000000 -1803.853365 881.514956
4508.000000 -1805.853195 881.488871
4508.000000 -1807.853024 881.462787
4508.000000 -1809.852854 881.436702
4508.000000 -1811.852684 881.410617
4508.000000 -1813.852514 881.384532
4508.000000 -1815.852344 881.358448
4508.000000 -1817.852174 881.332363
4508.000000 -1819.852004 881.306278
4508.000000 -1821.851834 881.280193
4508.000000 -1823.851664 881.254109
4508.000000 -1825.851493 881.228024
4508.000000 -1827.851323 881.201939
4508.000000 -1829.851153 881.175855
4508.000000 -1831.850983 881.149770
4508.000000 -1833.850813 881.123685
4508.000000 -1835.850643 881.097600
4508.000000 -1837.850473 881.071516
4508.000000 -1839.850303 881.045431
4508.000000 -1841.850133 881.019346
4508.000000 -1843.849962 880.993261
4508.000000 -1845.849792 880.967177
4508.000000 -1847.849622 880.941092
4508.000000 -1849.849452 880.915007
4508.000000 -1851.849282 880.888922
4508.000000 -1853.849112 880.862838
4508.000000 -1855.848942 880.836753
4508.000000 -1857.848772 880.810668
4508.000000 -1859.848602 880.784583
4508.000000 -1861.848431 880.758499
4508.000000 -1863.848261 880.732414
4508.000000 -1865.848091 880.706329
4508.000000 -1867.847921 880.680245
4508.000000 -1869.847751 880.654160
4508.000000 -1871.847581 880.628075
4508.000000 -1873.847411 880.601990
4508.000000 -1875.847241 880.575906
4508.000000 -1877.847071 880.549821
4508.000000 -1879.846900 880.523736
4508.000000 -1881.846730 880.497651
4508.000000 -1883.846560 880.471567
4508.000000 -1885.846390 880.445482
4508.000000 -1887.846220 880.419397
4508.000000 -1889.846050 880.393312
4508.000000 -1891.845880 880.367228
4508.000000 -1893.845710 880.341143
4508.000000 -1895.845540 880.315058
4508.000000 -1897.845369 880.288973
4508.000000 -1899.845199 880.262889
4508.000000 -1901.845029 880.236804
4508.000000 -1903.844859 880.210719
4508.000000 -1905.844689 880.184634
4508.000000 -1907.844519 880.158550
4508.000000 -1909.844349 880.132465
4508.000000 -1911.844179 880.106380
4508.000000 -1913.844009 880.080296
4508.000000 -1915.843838 880.054211
4508.000000 -1917.843668 880.028126
4508.000000 -1920.000000 880.000000
4506.407150 -1920.484780 881.108069
4504.814301 -1920.969561 882.216139
4503.221451 -1921.454341 883.324208
4501.628601 -1921.939121 884.432278
4500.035751 -1922.423902 885.540347
4498.442902 -1922.908682 886.648416
4496.850052 -1923.393462 887.756486
4495.257202 -1923.878243 888.864555
4493.664352 -1924.363023 889.972624
4492.071503 -1924.847804 891.080694
4490.478653 -1925.332584 892.188763
4488.885803 -1925.817364 893.296833
4487.292954 -1926.302145 894.404902
4485.700104 -1926.786925 895.512971
4484.107254 -1927.271705 896.621041
4482.514404 -1927.756486 897.729110
4480.921555 -1928.241266 898.837179
4479.328705 -1928.726046 899.945249
4477.735855 -1929.210827 901.053318
4476.143005 -1929.695607 902.161388
4474.550156 -1930.180387 903.269457
4472.957306 -1930.665168 904.377526
4471.364456 -1931.149948 905.485596
4469.771606 -1931.634728 906.593665
4468.178757 -1932.119509 907.701734
4466.585907 -1932.604289 908.809804
4464.993057 -1933.089070 909.917873
4463.400208 -1933.573850 911.025943
4461.807358 -1934.058630 912.134012
4460.214508 -1934.543411 913.242081
4458.621658 -1935.028191 914.350151
4457.028809 -1935.512971 915.458220
4455.435959 -1935.997752 916.566289
4453.843109 -1936.482532 917.674359
4452.250259 -1936.967312 918.782428
4450.657410 -1937.452093 919.890498
4449.064560 -1937.936873 920.998567
4447.471710 -1938.421653 922.106636
4445.878861 -1938.906434 923.214706
4444.286011 -1939.391214 924.322775
4442.693161 -1939.875994 925.430844
4441.100311 -1940.360775 926.538914
4439.507462 -1940.845555 927.646983
4437.914612 -1941.330336 928.755053
4436.321762 -1941.815116 929.863122
4434.728912 -1942.299896 930.971191
4433.136063 -1942.784677 932.079261
4431.543213 -1943.269457 933.187330
4429.950363 -1943.754237 934.295400
4428.357513 -1944.239018 935.403469
4426.764664 -1944.723798 936.511538
4425.171814 -1945.208578 937.619608
4423.578964 -1945.693359 938.727677
4421.986115 -1946.178139 939.835746
4420.393265 -1946.662919 940.943816
4418.800415 -1947.147700 942.051885
4416.000000 -1948.000000 944.000000
4414.003352 -1948.000000 943.884252
4412.006704 -1948.000000 943.768505
4410.010057 -1948.000000 943.652757
4408.013409 -1948.000000 943.537009
4406.016761 -1948.000000 943.421262
4404.020113 -1948.000000 943.305514
4402.023465 -1948.000000 943.189766
4400.026818 -1948.000000 943.074018
4398.030170 -1948.000000 942.958271
4396.033522 -1948.000000 942.842523
4394.036874 -1948.000000 942.726775
4392.040226 -1948.000000 942.611028
4390.043578 -1948.000000 942.495280
4388.046931 -1948.000000 942.379532
4386.050283 -1948.000000 942.263785
4384.053635 -1948.000000 942.148037
4382.056987 -1948.000000 942.032289
4380.060339 -1948.000000 941.916541
4378.063692 -1948.000000 941.800794
4376.067044 -1948.000000 941.685046
4374.070396 -1948.000000 941.569298
4372.073748 -1948.000000 941.453551
4370.077100 -1948.000000 941.337803
4368.080453 -1948.000000 941.222055
4366.083805 -1948.000000 941.106308
4364.087157 -1948.000000 940.990560
4362.090509 -1948.000000 940.874812
4360.093861 -1948.000000 940.759064
4358.097214 -1948.000000 940.643317
4356.100566 -1948.000000 940.527569
4354.103918 -1948.000000 940.411821
4352.107270 -1948.000000 940.296074
4350.110622 -1948.000000 940.180326
4348.113975 -1948.000000 940.064578
4346.117327 -1948.000000 939.948831
4344.120679 -1948.000000 939.833083
4342.124031 -1948.000000 939.717335
4340.127383 -1948.000000 939.601587
4338.130735 -1948.000000 939.485840
4336.134088 -1948.000000 939.370092
4334.137440 -1948.000000 939.254344
4332.140792 -1948.000000 939.138597
4330.144144 -1948.000000 939.022849
4328.147496 -1948.000000 938.907101
4326.150849 -1948.000000 938.791354
4324.154201 -1948.000000 938.675606
4322.157553 -1948.000000 938.559858
4320.160905 -1948.000000 938.444110
4318.164257 -1948.000000 938.328363
4316.167610 -1948.000000 938.212615
4314.170962 -1948.000000 938.096867
4312.174314 -1948.000000 937.981120
4310.177666 -1948.000000 937.865372
4308.181018 -1948.000000 937.749624
4306.184371 -1948.000000 937.633877
4304.187723 -1948.000000 937.518129
4302.191075 -1948.000000 937.402381
4300.194427 -1948.000000 937.286633
4298.197779 -1948.000000 937.170886
4296.201132 -1948.000000 937.055138
4294.204484 -1948.000000 936.939390
4292.207836 -1948.000000 936.823643
4290.211188 -1948.000000 936.707895
4288.214540 -1948.000000 936.592147
4286.217892 -1948.000000 936.476400
4284.221245 -1948.000000 936.360652
4282.224597 -1948.000000 936.244904
4280.227949 -1948.000000 936.129156
4278.231301 -1948.000000 936.013409
4276.234653 -1948.000000 935.897661
4274.238006 -1948.000000 935.781913
4272.241358 -1948.000000 935.666166
4270.244710 -1948.000000 935.550418
4268.248062 -1948.000000 935.434670
4266.251414 -1948.000000 935.318923
4264.254767 -1948.000000 935.203175
4262.258119 -1948.000000 935.087427
4260.261471 -1948.000000 934.971679
4258.264823 -1948.000000 934.855932
4256.268175 -1948.000000 934.740184
4254.271528 -1948.000000 934.624436
4252.274880 -1948.000000 934.508689
4250.278232 -1948.000000 934.392941
4248.281584 -1948.000000 934.277193
4246.284936 -1948.000000 934.161446
4244.288288 -1948.000000 934.045698
4242.291641 -1948.000000 933.929950
4240.294993 -1948.000000 933.814202
4238.298345 -1948.000000 933.698455
4236.301697 -1948.000000 933.582707
4234.305049 -1948.000000 933.466959
4232.308402 -1948.000000 933.351212
4230.311754 -1948.000000 933.235464
4228.315106 -1948.000000 933.119716
4226.318458 -1948.000000 933.003969
4224.321810 -1948.000000 932.888221
4222.325163 -1948.000000 932.772473
4220.328515 -1948.000000 932.656725
4218.331867 -1948.000000 932.540978
4216.335219 -1948.000000 932.425230
4214.338571 -1948.000000 932.309482
4212.341924 -1948.000000 932.193735
4210.345276 -1948.000000 932.077987
4208.348628 -1948.000000 931.962239
4206.351980 -1948.000000 931.846492
4204.355332 -1948.000000 931.730744
4202.358685 -1948.000000 931.614996
4200.362037 -1948.000000 931.499249
4198.365389 -1948.000000 931.383501
4196.368741 -1948.000000 931.267753
4194.372093 -1948.000000 931.152005
4192.375445 -1948.000000 931.036258
4190.378798 -1948.000000 930.920510
4188.382150 -1948.000000 930.804762
4186.385502 -1948.000000 930.689015
4184.388854 -1948.000000 930.573267
4182.392206 -1948.000000 930.457519
4180.395559 -1948.000000 930.341772
4178.398911 -1948.000000 930.226024
4176.402263 -1948.000000 930.110276
4174.405615 -1948.000000 929.994528
4172.408967 -1948.000000 929.878781
4170.412320 -1948.000000 929.763033
4168.415672 -1948.000000 929.647285
4166.419024 -1948.000000 929.531538
4164.422376 -1948.000000 929.415790
4162.425728 -1948.000000 929.300042
4160.429081 -1948.000000 929.184295
4158.432433 -1948.000000 929.068547
4156.435785 -1948.000000 928.952799
4154.439137 -1948.000000 928.837051
4152.442489 -1948.000000 928.721304
4150.445842 -1948.000000 928.605556
4148.449194 -1948.000000 928.489808
4146.452546 -1948.000000 928.374061
4144.455898 -1948.000000 928.258313
4142.459250 -1948.000000 928.142565
4140.462602 -1948.000000 928.026818
4138.465955 -1948.000000 927.911070
4136.469307 -1948.000000 927.795322
4134.472659 -1948.000000 927.679574
4132.476011 -1948.000000 927.563827
4130.479363 -1948.000000 927.448079
4128.482716 -1948.000000 927.332331
4126.486068 -1948.000000 927.216584
4124.489420 -1948.000000 927.100836
4122.492772 -1948.000000 926.985088
4120.496124 -1948.000000 926.869341
4118.499477 -1948.000000 926.753593
4116.502829 -1948.000000 926.637845
4114.506181 -1948.000000 926.522097
4112.509533 -1948.000000 926.406350
4110.512885 -1948.000000 926.290602
4108.516238 -1948.000000 926.174854
4106.519590 -1948.000000 926.059107
4104.522942 -1948.000000 925.943359
4102.526294 -1948.000000 925.827611
4100.529646 -1948.000000 925.711864
4098.532998 -1948.000000 925.596116
4096.536351 -1948.000000 925.480368
4094.539703 -1948.000000 925.364620
4092.543055 -1948.000000 925.248873
4090.546407 -1948.000000 925.133125
4088.549759 -1948.000000 925.017377
4086.553112 -1948.000000 924.901630
4084.556464 -1948.000000 924.785882
4082.559816 -1948.000000 924.670134
4080.563168 -1948.000000 924.554387
4078.566520 -1948.000000 924.438639
4076.569873 -1948.000000 924.322891
4074.573225 -1948.000000 924.207143
4072.576577 -1948.000000 924.091396
4070.579929 -1948.000000 923.975648
4068.583281 -1948.000000 923.859900
4066.586634 -1948.000000 923.744153
4064.589986 -1948.000000 923.628405
4062.593338 -1948.000000 923.512657
4060.596690 -1948.000000 923.396910
4058.600042 -1948.000000 923.281162
4056.603395 -1948.000000 923.165414
4054.606747 -1948.000000 923.049666
4052.610099 -1948.000000 922.933919
4050.613451 -1948.000000 922.818171
4048.616803 -1948.000000 922.702423
4046.620155 -1948.000000 922.586676
4044.623508 -1948.000000 922.470928
4042.626860 -1948.000000 922.355180
4040.630212 -1948.000000 922.239433
4038.633564 -1948.000000 922.123685
4036.636916 -1948.000000 922.007937
4034.640269 -1948.000000 921.892189
4032.643621 -1948.000000 921.776442
4030.646973 -1948.000000 921.660694
4028.650325 -1948.000000 921.544946
4026.653677 -1948.000000 921.429199
4024.657030 -1948.000000 921.313451
4022.660382 -1948.000000 921.197703
4020.663734 -1948.000000 921.081956
4018.667086 -1948.000000 920.966208
4016.670438 -1948.000000 920.850460
4014.673791 -1948.000000 920.734712
4012.677143 -1948.000000 920.618965
4010.680495 -1948.000000 920.503217
4008.683847 -1948.000000 920.387469
4006.687199 -1948.000000 920.271722
4004.690552 -1948.000000 920.155974
4002.693904 -1948.000000 920.040226
4000.697256 -1948.000000 919.924479
3998.700608 -1948.000000 919.808731
3996.703960 -1948.000000 919.692983
3994.707312 -1948.000000 919.577236
3992.710665 -1948.000000 919.461488
3990.714017 -1948.000000 919.345740
3988.717369 -1948.000000 919.229992
3986.720721 -1948.000000 919.114245
3984.724073 -1948.000000 918.998497
3982.727426 -1948.000000 918.882749
3980.730778 -1948.000000 918.767002
3978.734130 -1948.000000 918.651254
3976.737482 -1948.000000 918.535506
3974.740834 -1948.000000 918.419759
3972.744187 -1948.000000 918.304011
3970.747539 -1948.000000 918.188263
3968.750891 -1948.000000 918.072515
3966.754243 -1948.000000 917.956768
3964.757595 -1948.000000 917.841020
3962.760948 -1948.000000 917.725272
3960.764300 -1948.000000 917.609525
3958.767652 -1948.000000 917.493777
3956.771004 -1948.000000 917.378029
3954.774356 -1948.000000 917.262282
3952.777708 -1948.000000 917.146534
3950.781061 -1948.000000 917.030786
3948.784413 -1948.000000 916.915038
3946.787765 -1948.000000 916.799291
3944.791117 -1948.000000 916.683543
3942.794469 -1948.000000 916.567795
3940.797822 -1948.000000 916.452048
3938.801174 -1948.000000 916.336300
3936.804526 -1948.000000 916.220552
3934.807878 -1948.000000 916.104805
3932.811230 -1948.000000 915.989057
3930.814583 -1948.000000 915.873309
3928.817935 -1948.000000 915.757561
3926.821287 -1948.000000 915.641814
3924.824639 -1948.000000 915.526066
3922.827991 -1948.000000 915.410318
3920.831344 -1948.000000 915.294571
3918.834696 -1948.000000 915.178823
3916.838048 -1948.000000 915.063075
3914.841400 -1948.000000 914.947328
3912.844752 -1948.000000 914.831580
3910.848105 -1948.000000 914.715832
3908.851457 -1948.000000 914.600084
3906.854809 -1948.000000 914.484337
3904.858161 -1948.000000 914.368589
3902.861513 -1948.000000 914.252841
3900.864865 -1948.000000 914.137094
3898.868218 -1948.000000 914.021346
3896.871570 -1948.000000 913.905598
3894.874922 -1948.000000 913.789851
3892.878274 -1948.000000 913.674103
3890.881626 -1948.000000 913.558355
3888.884979 -1948.000000 913.442607
3886.888331 -1948.000000 913.326860
3884.891683 -1948.000000 913.211112
3882.895035 -1948.000000 913.095364
3880.898387 -1948.000000 912.979617
3878.901740 -1948.000000 912.863869
3876.905092 -1948.000000 912.748121
3874.908444 -1948.000000 912.632374
3872.911796 -1948.000000 912.516626
3870.915148 -1948.000000 912.400878
3868.918501 -1948.000000 912.285130
3866.921853 -1948.000000 912.169383
3864.925205 -1948.000000 912.053635
3862.928557 -1948.000000 911.937887
3860.931909 -1948.000000 911.822140
3858.935261 -1948.000000 911.706392
3856.938614 -1948.000000 911.590644
3854.941966 -1948.000000 911.474897
3852.945318 -1948.000000 911.359149
3850.948670 -1948.000000 911.243401
3848.952022 -1948.000000 911.127653
3846.955375 -1948.000000 911.011906
3844.958727 -1948.000000 910.896158
3842.962079 -1948.000000 910.780410
3840.965431 -1948.000000 910.664663
3838.968783 -1948.000000 910.548915
3836.972136 -1948.000000 910.433167
3834.975488 -1948.000000 910.317420
3832.978840 -1948.000000 910.201672
3830.982192 -1948.000000 910.085924
3828.985544 -1948.000000 909.970176
3826.988897 -1948.000000 909.854429
3824.992249 -1948.000000 909.738681
3822.995601 -1948.000000 909.622933
3820.998953 -1948.000000 909.507186
3819.002305 -1948.000000 909.391438
3817.005658 -1948.000000 909.275690
3815.009010 -1948.000000 909.159943
3813.012362 -1948.000000 909.044195
3811.015714 -1948.000000 908.928447
3809.019066 -1948.000000 908.812699
3807.022418 -1948.000000 908.696952
3805.025771 -1948.000000 908.581204
3803.029123 -1948.000000 908.465456
3801.032475 -1948.000000 908.349709
3799.035827 -1948.000000 908.233961
3797.039179 -1948.000000 908.118213
3795.042532 -1948.000000 908.002466
3793.045884 -1948.000000 907.886718
3791.049236 -1948.000000 907.770970
3789.052588 -1948.000000 907.655223
3787.055940 -1948.000000 907.539475
3785.059293 -1948.000000 907.423727
3783.062645 -1948.000000 907.307979
3781.065997 -1948.000000 907.192232
3779.069349 -1948.000000 907.076484
3777.072701 -1948.000000 906.960736
3775.076054 -1948.000000 906.844989
3773.079406 -1948.000000 906.729241
3771.082758 -1948.000000 906.613493
3769.086110 -1948.000000 906.497746
3767.089462 -1948.000000 906.381998
3765.092815 -1948.000000 906.266250
3763.096167 -1948.000000 906.150502
3761.099519 -1948.000000 906.034755
3759.102871 -1948.000000 905.919007
3757.106223 -1948.000000 905.803259
3755.109575 -1948.000000 905.687512
3753.112928 -1948.000000 905.571764
3751.116280 -1948.000000 905.456016
3749.119632 -1948.000000 905.340269
3747.122984 -1948.000000 905.224521
3745.126336 -1948.000000 905.108773
3743.129689 -1948.000000 904.993025
3741.133041 -1948.000000 904.877278
3739.136393 -1948.000000 904.761530
3737.139745 -1948.000000 904.645782
3735.143097 -1948.000000 904.530035
3733.146450 -1948.000000 904.414287
3731.149802 -1948.000000 904.298539
3729.153154 -1948.000000 904.182792
3727.156506 -1948.000000 904.067044
3725.159858 -1948.000000 903.951296
3723.163211 -1948.000000 903.835548
3721.166563 -1948.000000 903.719801
3719.169915 -1948.000000 903.604053
3717.173267 -1948.000000 903.488305
3715.176619 -1948.000000 903.372558
3713.179971 -1948.000000 903.256810
3711.183324 -1948.000000 903.141062
3709.186676 -1948.000000 903.025315
3707.190028 -1948.000000 902.909567
3705.193380 -1948.000000 902.793819
3703.196732 -1948.000000 902.678071
3701.200085 -1948.000000 902.562324
3699.203437 -1948.000000 902.446576
3697.206789 -1948.000000 902.330828
3695.210141 -1948.000000 902.215081
3693.213493 -1948.000000 902.099333
3691.216846 -1948.000000 901.983585
3689.220198 -1948.000000 901.867838
3687.223550 -1948.000000 901.752090
3685.226902 -1948.000000 901.636342
3683.230254 -1948.000000 901.520594
3681.233607 -1948.000000 901.404847
3679.236959 -1948.000000 901.289099
3677.240311 -1948.000000 901.173351
3675.243663 -1948.000000 901.057604
3673.247015 -1948.000000 900.941856
3671.250368 -1948.000000 900.826108
3669.253720 -1948.000000 900.710361
3667.257072 -1948.000000 900.594613
3665.260424 -1948.000000 900.478865
3663.263776 -1948.000000 900.363117
3661.267128 -1948.000000 900.247370
3659.270481 -1948.000000 900.131622
3657.273833 -1948.000000 900.015874
3655.277185 -1948.000000 899.900127
3653.280537 -1948.000000 899.784379
3651.283889 -1948.000000 899.668631
3649.287242 -1948.000000 899.552884
3647.290594 -1948.000000 899.437136
3645.293946 -1948.000000 899.321388
3643.297298 -1948.000000 899.205640
3641.300650 -1948.000000 899.089893
3639.304003 -1948.000000 898.974145
3637.307355 -1948.000000 898.858397
3635.310707 -1948.000000 898.742650
3633.314059 -1948.000000 898.626902
3631.317411 -1948.000000 898.511154
3629.320764 -1948.000000 898.395407
3627.324116 -1948.000000 898.279659
3625.327468 -1948.000000 898.163911
3623.330820 -1948.000000 898.048163
3621.334172 -1948.000000 897.932416
3619.337525 -1948.000000 897.816668
3617.340877 -1948.000000 897.700920
3615.344229 -1948.000000 897.585173
3613.347581 -1948.000000 897.469425
3611.350933 -1948.000000 897.353677
3609.354285 -1948.000000 897.237930
3607.357638 -1948.000000 897.122182
3605.360990 -1948.000000 897.006434
3603.364342 -1948.000000 896.890686
3601.367694 -1948.000000 896.774939
3599.371046 -1948.000000 896.659191
3597.374399 -1948.000000 896.543443
3595.377751 -1948.000000 896.427696
3593.381103 -1948.000000 896.311948
3591.384455 -1948.000000 896.196200
3589.387807 -1948.000000 896.080453
3587.391160 -1948.000000 895.964705
3585.394512 -1948.000000 895.848957
3583.397864 -1948.000000 895.733210
3581.401216 -1948.000000 895.617462
3579.404568 -1948.000000 895.501714
3577.407921 -1948.000000 895.385966
3575.411273 -1948.000000 895.270219
3573.414625 -1948.000000 895.154471
3571.417977 -1948.000000 895.038723
3569.421329 -1948.000000 894.922976
3567.424681 -1948.000000 894.807228
3565.428034 -1948.000000 894.691480
3563.431386 -1948.000000 894.575733
3561.434738 -1948.000000 894.459985
3559.438090 -1948.000000 894.344237
3557.441442 -1948.000000 894.228489
3555.444795 -1948.000000 894.112742
3553.448147 -1948.000000 893.996994
3551.451499 -1948.000000 893.881246
3549.454851 -1948.000000 893.765499
3547.458203 -1948.000000 893.649751
3545.461556 -1948.000000 893.534003
3543.464908 -1948.000000 893.418256
3541.468260 -1948.000000 893.302508
3539.471612 -1948.000000 893.186760
3537.474964 -1948.000000 893.071012
3535.478317 -1948.000000 892.955265
3533.481669 -1948.000000 892.839517
3531.485021 -1948.000000 892.723769
3529.488373 -1948.000000 892.608022
3527.491725 -1948.000000 892.492274
3525.495078 -1948.000000 892.376526
3523.498430 -1948.000000 892.260779
3521.501782 -1948.000000 892.145031
3519.505134 -1948.000000 892.029283
3517.508486 -1948.000000 891.913535
3515.511838 -1948.000000 891.797788
3513.515191 -1948.000000 891.682040
3511.518543 -1948.000000 891.566292
3509.521895 -1948.000000 891.450545
3507.525247 -1948.000000 891.334797
3505.528599 -1948.000000 891.219049
3503.531952 -1948.000000 891.103302
3501.535304 -1948.000000 890.987554
3499.538656 -1948.000000 890.871806
3497.542008 -1948.000000 890.756058
3495.545360 -1948.000000 890.640311
3493.548713 -1948.000000 890.524563
3491.552065 -1948.000000 890.408815
3489.555417 -1948.000000 890.293068
3487.558769 -1948.000000 890.177320
3485.562121 -1948.000000 890.061572
3483.565474 -1948.000000 889.945825
3481.568826 -1948.000000 889.830077
3479.572178 -1948.000000 889.714329
3477.575530 -1948.000000 889.598581
3475.578882 -1948.000000 889.482834
3473.582235 -1948.000000 889.367086
3471.585587 -1948.000000 889.251338
3469.588939 -1948.000000 889.135591
3467.592291 -1948.000000 889.019843
3465.595643 -1948.000000 888.904095
3463.598995 -1948.000000 888.788348
3461.602348 -1948.000000 888.672600
3459.605700 -1948.000000 888.556852
3457.609052 -1948.000000 888.441104
3455.612404 -1948.000000 888.325357
3453.615756 -1948.000000 888.209609
3451.619109 -1948.000000 888.093861
3449.622461 -1948.000000 887.978114
3447.625813 -1948.000000 887.862366
3445.629165 -1948.000000 887.746618
3443.632517 -1948.000000 887.630871
3441.635870 -1948.000000 887.515123
3439.639222 -1948.000000 887.399375
3437.642574 -1948.000000 887.283627
3435.645926 -1948.000000 887.167880
3433.649278 -1948.000000 887.052132
3431.652631 -1948.000000 886.936384
3429.655983 -1948.000000 886.820637
3427.659335 -1948.000000 886.704889
3425.662687 -1948.000000 886.589141
3423.666039 -1948.000000 886.473394
3421.669391 -1948.000000 886.357646
3419.672744 -1948.000000 886.241898
3417.676096 -1948.000000 886.126150
3415.679448 -1948.000000 886.010403
3413.682800 -1948.000000 885.894655
3411.686152 -1948.000000 885.778907
3409.689505 -1948.000000 885.663160
3407.692857 -1948.000000 885.547412
3405.696209 -1948.000000 885.431664
3403.699561 -1948.000000 885.315917
3401.702913 -1948.000000 885.200169
3399.706266 -1948.000000 885.084421
3397.709618 -1948.000000 884.968673
3395.712970 -1948.000000 884.852926
3393.716322 -1948.000000 884.737178
3391.719674 -1948.000000 884.621430
3389.723027 -1948.000000 884.505683
3387.726379 -1948.000000 884.389935
3385.729731 -1948.000000 884.274187
3383.733083 -1948.000000 884.158440
3381.736435 -1948.000000 884.042692
3379.739788 -1948.000000 883.926944
3377.743140 -1948.000000 883.811197
3375.746492 -1948.000000 883.695449
3373.749844 -1948.000000 883.579701
3371.753196 -1948.000000 883.463953
3369.756548 -1948.000000 883.348206
3367.759901 -1948.000000 883.232458
3365.763253 -1948.000000 883.116710
3363.766605 -1948.000000 883.000963
3361.769957 -1948.000000 882.885215
3359.773309 -1948.000000 882.769467
3357.776662 -1948.000000 882.653720
3355.780014 -1948.000000 882.537972
3353.783366 -1948.000000 882.422224
3351.786718 -1948.000000 882.306476
3349.790070 -1948.000000 882.190729
3347.793423 -1948.000000 882.074981
3345.796775 -1948.000000 881.959233
3343.800127 -1948.000000 881.843486
3341.803479 -1948.000000 881.727738
3339.806831 -1948.000000 881.611990
3337.810184 -1948.000000 881.496243
3335.813536 -1948.000000 881.380495
3333.816888 -1948.000000 881.264747
3331.820240 -1948.000000 881.148999
3329.823592 -1948.000000 881.033252
3327.826945 -1948.000000 880.917504
3325.830297 -1948.000000 880.801756
3323.833649 -1948.000000 880.686009
3321.837001 -1948.000000 880.570261
3319.840353 -1948.000000 880.454513
3317.843705 -1948.000000 880.338766
3315.847058 -1948.000000 880.223018
3312.000000 -1948.000000 880.000000
3310.002127 -1948.000000 879.907790
3308.004254 -1948.000000 879.815581
3306.006380 -1948.000000 879.723371
3304.008507 -1948.000000 879.631162
3302.010634 -1948.000000 879.538952
3300.012761 -1948.000000 879.446743
3298.014887 -1948.000000 879.354533
3296.017014 -1948.000000 879.262324
3294.019141 -1948.000000 879.170114
3292.021268 -1948.000000 879.077905
3290.023395 -1948.000000 878.985695
3288.025521 -1948.000000 878.893486
3286.027648 -1948.000000 878.801276
3284.029775 -1948.000000 878.709067
3282.031902 -1948.000000 878.616857
3280.034028 -1948.000000 878.524647
3278.036155 -1948.000000 878.432438
3276.038282 -1948.000000 878.340228
3274.040409 -1948.000000 878.248019
3272.042536 -1948.000000 878.155809
3270.044662 -1948.000000 878.063600
3268.046789 -1948.000000 877.971390
3266.048916 -1948.000000 877.879181
3264.051043 -1948.000000 877.786971
3262.053170 -1948.000000 877.694762
3260.055296 -1948.000000 877.602552
3258.057423 -1948.000000 877.510343
3256.059550 -1948.000000 877.418133
3254.061677 -1948.000000 877.325924
3252.063803 -1948.000000 877.233714
3250.065930 -1948.000000 877.141504
3248.068057 -1948.000000 877.049295
3246.070184 -1948.000000 876.957085
3244.072311 -1948.000000 876.864876
3242.074437 -1948.000000 876.772666
3240.076564 -1948.000000 876.680457
3238.078691 -1948.000000 876.588247
3236.080818 -1948.000000 876.496038
3234.082944 -1948.000000 876.403828
3232.085071 -1948.000000 876.311619
3230.087198 -1948.000000 876.219409
3228.089325 -1948.000000 876.127200
3226.091452 -1948.000000 876.034990
3224.093578 -1948.000000 875.942781
3222.095705 -1948.000000 875.850571
3220.097832 -1948.000000 875.758361
3218.099959 -1948.000000 875.666152
3216.102085 -1948.000000 875.573942
3214.104212 -1948.000000 875.481733
3212.106339 -1948.000000 875.389523
3210.108466 -1948.000000 875.297314
3208.110593 -1948.000000 875.205104
3206.112719 -1948.000000 875.112895
3204.114846 -1948.000000 875.020685
3202.116973 -1948.000000 874.928476
3200.119100 -1948.000000 874.836266
3198.121226 -1948.000000 874.744057
3196.123353 -1948.000000 874.651847
3194.125480 -1948.000000 874.559638
3192.127607 -1948.000000 874.467428
3190.129734 -1948.000000 874.375218
3188.131860 -1948.000000 874.283009
3186.133987 -1948.000000 874.190799
3184.136114 -1948.000000 874.098590
3182.138241 -1948.000000 874.006380
3180.140367 -1948.000000 873.914171
3178.142494 -1948.000000 873.821961
3176.144621 -1948.000000 873.729752
3174.146748 -1948.000000 873.637542
3172.148875 -1948.000000 873.545333
3170.151001 -1948.000000 873.453123
3168.153128 -1948.000000 873.360914
3166.155255 -1948.000000 873.268704
3164.157382 -1948.000000 873.176495
3162.159509 -1948.000000 873.084285
3160.161635 -1948.000000 872.992075
3158.163762 -1948.000000 872.899866
3156.165889 -1948.000000 872.807656
3154.168016 -1948.000000 872.715447
3152.170142 -1948.000000 872.623237
3150.172269 -1948.000000 872.531028
3148.174396 -1948.000000 872.438818
3146.176523 -1948.000000 872.346609
3144.178650 -1948.000000 872.254399
3142.180776 -1948.000000 872.162190
3140.182903 -1948.000000 872.069980
3138.185030 -1948.000000 871.977771
3136.187157 -1948.000000 871.885561
3134.189283 -1948.000000 871.793352
3132.191410 -1948.000000 871.701142
3130.193537 -1948.000000 871.608932
3128.195664 -1948.000000 871.516723
3126.197791 -1948.000000 871.424513
3124.199917 -1948.000000 871.332304
3122.202044 -1948.000000 871.240094
3120.204171 -1948.000000 871.147885
3118.206298 -1948.000000 871.055675
3116.208424 -1948.000000 870.963466
3114.210551 -1948.000000 870.871256
3112.212678 -1948.000000 870.779047
3110.214805 -1948.000000 870.686837
3108.216932 -1948.000000 870.594628
3106.219058 -1948.000000 870.502418
3104.221185 -1948.000000 870.410209
3102.223312 -1948.000000 870.317999
3100.225439 -1948.000000 870.225789
3098.227565 -1948.000000 870.133580
3096.229692 -1948.000000 870.041370
3094.231819 -1948.000000 869.949161
3092.233946 -1948.000000 869.856951
3090.236073 -1948.000000 869.764742
3088.238199 -1948.000000 869.672532
3086.240326 -1948.000000 869.580323
3084.242453 -1948.000000 869.488113
3082.244580 -1948.000000 869.395904
3080.246707 -1948.000000 869.303694
3078.248833 -1948.000000 869.211485
3076.250960 -1948.000000 869.119275
3074.253087 -1948.000000 869.027066
3072.255214 -1948.000000 868.934856
3070.257340 -1948.000000 868.842646
3068.259467 -1948.000000 868.750437
3066.261594 -1948.000000 868.658227
3064.263721 -1948.000000 868.566018
3062.265848 -1948.000000 868.473808
3060.267974 -1948.000000 868.381599
3058.270101 -1948.000000 868.289389
3056.272228 -1948.000000 868.197180
3054.274355 -1948.000000 868.104970
3052.276481 -1948.000000 868.012761
3050.278608 -1948.000000 867.920551
3048.280735 -1948.000000 867.828342
3046.282862 -1948.000000 867.736132
3044.284989 -1948.000000 867.643923
3042.287115 -1948.000000 867.551713
3040.289242 -1948.000000 867.459503
3038.291369 -1948.000000 867.367294
3036.293496 -1948.000000 867.275084
3034.295622 -1948.000000 867.182875
3032.297749 -1948.000000 867.090665
3030.299876 -1948.000000 866.998456
3028.302003 -1948.000000 866.906246
3026.304130 -1948.000000 866.814037
3024.306256 -1948.000000 866.721827
3022.308383 -1948.000000 866.629618
3020.310510 -1948.000000 866.537408
3018.312637 -1948.000000 866.445199
3016.314763 -1948.000000 866.352989
3014.316890 -1948.000000 866.260780
3012.319017 -1948.000000 866.168570
3010.321144 -1948.000000 866.076360
3008.323271 -1948.000000 865.984151
3006.325397 -1948.000000 865.891941
3004.327524 -1948.000000 865.799732
3002.329651 -1948.000000 865.707522
3000.331778 -1948.000000 865.615313
2998.333905 -1948.000000 865.523103
2996.336031 -1948.000000 865.430894
2994.338158 -1948.000000 865.338684
2992.340285 -1948.000000 865.246475
2990.342412 -1948.000000 865.154265
2988.344538 -1948.000000 865.062056
2986.346665 -1948.000000 864.969846
2984.348792 -1948.000000 864.877637
2982.350919 -1948.000000 864.785427
2980.353046 -1948.000000 864.693217
2978.355172 -1948.000000 864.601008
2976.357299 -1948.000000 864.508798
2974.359426 -1948.000000 864.416589
2972.361553 -1948.000000 864.324379
2970.363679 -1948.000000 864.232170
2968.365806 -1948.000000 864.139960
2966.367933 -1948.000000 864.047751
2964.370060 -1948.000000 863.955541
2962.372187 -1948.000000 863.863332
2960.374313 -1948.000000 863.771122
2958.376440 -1948.000000 863.678913
2956.378567 -1948.000000 863.586703
2954.380694 -1948.000000 863.494494
2952.382820 -1948.000000 863.402284
2950.384947 -1948.000000 863.310074
2948.387074 -1948.000000 863.217865
2946.389201 -1948.000000 863.125655
2944.391328 -1948.000000 863.033446
2942.393454 -1948.000000 862.941236
2940.395581 -1948.000000 862.849027
2938.397708 -1948.000000 862.756817
2936.399835 -1948.000000 862.664608
2934.401961 -1948.000000 862.572398
2932.404088 -1948.000000 862.480189
2930.406215 -1948.000000 862.387979
2928.408342 -1948.000000 862.295770
2926.410469 -1948.000000 862.203560
2924.412595 -1948.000000 862.111351
2922.414722 -1948.000000 862.019141
2920.416849 -1948.000000 861.926931
2918.418976 -1948.000000 861.834722
2916.421102 -1948.000000 861.742512
2914.423229 -1948.000000 861.650303
2912.425356 -1948.000000 861.558093
2910.427483 -1948.000000 861.465884
2908.429610 -1948.000000 861.373674
2906.431736 -1948.000000 861.281465
2904.433863 -1948.000000 861.189255
2902.435990 -1948.000000 861.097046
2900.438117 -1948.000000 861.004836
2898.440244 -1948.000000 860.912627
2896.442370 -1948.000000 860.820417
2894.444497 -1948.000000 860.728208
2892.446624 -1948.000000 860.635998
2890.448751 -1948.000000 860.543788
2888.450877 -1948.000000 860.451579
2886.453004 -1948.000000 860.359369
2884.455131 -1948.000000 860.267160
2882.457258 -1948.000000 860.174950
2880.459385 -1948.000000 860.082741
2878.461511 -1948.000000 859.990531
2876.463638 -1948.000000 859.898322
2874.465765 -1948.000000 859.806112
2872.467892 -1948.000000 859.713903
2870.470018 -1948.000000 859.621693
2868.472145 -1948.000000 859.529484
2866.474272 -1948.000000 859.437274
2864.476399 -1948.000000 859.345065
2862.478526 -1948.000000 859.252855
2860.480652 -1948.000000 859.160645
2858.482779 -1948.000000 859.068436
2856.484906 -1948.000000 858.976226
2854.487033 -1948.000000 858.884017
2852.489159 -1948.000000 858.791807
2850.491286 -1948.000000 858.699598
2848.493413 -1948.000000 858.607388
2846.495540 -1948.000000 858.515179
2844.497667 -1948.000000 858.422969
2842.499793 -1948.000000 858.330760
2840.501920 -1948.000000 858.238550
2838.504047 -1948.000000 858.146341
2836.506174 -1948.000000 858.054131
2834.508300 -1948.000000 857.961922
2832.510427 -1948.000000 857.869712
2830.512554 -1948.000000 857.777502
2828.514681 -1948.000000 857.685293
2826.516808 -1948.000000 857.593083
2824.518934 -1948.000000 857.500874
2822.521061 -1948.000000 857.408664
2820.523188 -1948.000000 857.316455
2818.525315 -1948.000000 857.224245
2816.527442 -1948.000000 857.132036
2814.529568 -1948.000000 857.039826
2812.531695 -1948.000000 856.947617
2810.533822 -1948.000000 856.855407
2808.535949 -1948.000000 856.763198
2806.538075 -1948.000000 856.670988
2804.540202 -1948.000000 856.578779
2802.542329 -1948.000000 856.486569
2800.544456 -1948.000000 856.394359
2798.546583 -1948.000000 856.302150
2796.548709 -1948.000000 856.209940
2794.550836 -1948.000000 856.117731
2792.552963 -1948.000000 856.025521
2790.555090 -1948.000000 855.933312
2788.557216 -1948.000000 855.841102
2786.559343 -1948.000000 855.748893
2784.561470 -1948.000000 855.656683
2782.563597 -1948.000000 855.564474
2780.565724 -1948.000000 855.472264
2778.567850 -1948.000000 855.380055
2776.569977 -1948.000000 855.287845
2774.572104 -1948.000000 855.195636
2772.574231 -1948.000000 855.103426
2770.576357 -1948.000000 855.011216
2768.578484 -1948.000000 854.919007
2766.580611 -1948.000000 854.826797
2764.582738 -1948.000000 854.734588
2762.584865 -1948.000000 854.642378
2760.586991 -1948.000000 854.550169
2758.589118 -1948.000000 854.457959
2756.591245 -1948.000000 854.365750
2754.593372 -1948.000000 854.273540
2752.595498 -1948.000000 854.181331
2750.597625 -1948.000000 854.089121
2748.599752 -1948.000000 853.996912
2746.601879 -1948.000000 853.904702
2744.604006 -1948.000000 853.812493
2742.606132 -1948.000000 853.720283
2740.608259 -1948.000000 853.628074
2738.610386 -1948.000000 853.535864
2736.612513 -1948.000000 853.443654
2734.614640 -1948.000000 853.351445
2732.616766 -1948.000000 853.259235
2730.618893 -1948.000000 853.167026
2728.621020 -1948.000000 853.074816
2726.623147 -1948.000000 852.982607
2724.625273 -1948.000000 852.890397
2722.627400 -1948.000000 852.798188
2720.629527 -1948.000000 852.705978
2718.631654 -1948.000000 852.613769
2716.633781 -1948.000000 852.521559
2714.635907 -1948.000000 852.429350
2712.638034 -1948.000000 852.337140
2710.640161 -1948.000000 852.244931
2708.642288 -1948.000000 852.152721
2706.644414 -1948.000000 852.060511
2704.646541 -1948.000000 851.968302
2702.648668 -1948.000000 851.876092
2700.650795 -1948.000000 851.783883
2698.652922 -1948.000000 851.691673
2696.655048 -1948.000000 851.599464
2694.657175 -1948.000000 851.507254
2692.659302 -1948.000000 851.415045
2690.661429 -1948.000000 851.322835
2688.663555 -1948.000000 851.230626
2686.665682 -1948.000000 851.138416
2684.667809 -1948.000000 851.046207
2682.669936 -1948.000000 850.953997
2680.672063 -1948.000000 850.861788
2678.674189 -1948.000000 850.769578
2676.676316 -1948.000000 850.677368
2674.678443 -1948.000000 850.585159
2672.680570 -1948.000000 850.492949
2670.682696 -1948.000000 850.400740
2668.684823 -1948.000000 850.308530
2666.686950 -1948.000000 850.216321
2664.689077 -1948.000000 850.124111
2662.691204 -1948.000000 850.031902
2660.693330 -1948.000000 849.939692
2658.695457 -1948.000000 849.847483
2656.697584 -1948.000000 849.755273
2654.699711 -1948.000000 849.663064
2652.701837 -1948.000000 849.570854
2650.703964 -1948.000000 849.478645
2648.706091 -1948.000000 849.386435
2646.708218 -1948.000000 849.294225
2644.710345 -1948.000000 849.202016
2642.712471 -1948.000000 849.109806
2640.714598 -1948.000000 849.017597
2638.716725 -1948.000000 848.925387
2636.718852 -1948.000000 848.833178
2634.720979 -1948.000000 848.740968
2632.723105 -1948.000000 848.648759
2630.725232 -1948.000000 848.556549
2628.727359 -1948.000000 848.464340
2626.729486 -1948.000000 848.372130
2624.731612 -1948.000000 848.279921
2622.733739 -1948.000000 848.187711
2620.735866 -1948.000000 848.095502
2618.737993 -1948.000000 848.003292
2616.740120 -1948.000000 847.911082
2614.742246 -1948.000000 847.818873
2612.744373 -1948.000000 847.726663
2610.746500 -1948.000000 847.634454
2608.748627 -1948.000000 847.542244
2606.750753 -1948.000000 847.450035
2604.752880 -1948.000000 847.357825
2602.755007 -1948.000000 847.265616
2600.757134 -1948.000000 847.173406
2598.759261 -1948.000000 847.081197
2596.761387 -1948.000000 846.988987
2594.763514 -1948.000000 846.896778
2592.765641 -1948.000000 846.804568
2590.767768 -1948.000000 846.712359
2588.769894 -1948.000000 846.620149
2586.772021 -1948.000000 846.527939
2584.774148 -1948.000000 846.435730
2582.776275 -1948.000000 846.343520
2580.778402 -1948.000000 846.251311
2578.780528 -1948.000000 846.159101
2576.782655 -1948.000000 846.066892
2574.784782 -1948.000000 845.974682
2572.786909 -1948.000000 845.882473
2570.789035 -1948.000000 845.790263
2568.791162 -1948.000000 845.698054
2566.793289 -1948.000000 845.605844
2564.795416 -1948.000000 845.513635
2562.797543 -1948.000000 845.421425
2560.799669 -1948.000000 845.329216
2558.801796 -1948.000000 845.237006
2556.803923 -1948.000000 845.144796
2554.806050 -1948.000000 845.052587
2552.808177 -1948.000000 844.960377
2550.810303 -1948.000000 844.868168
2548.812430 -1948.000000 844.775958
2546.814557 -1948.000000 844.683749
2544.816684 -1948.000000 844.591539
2542.818810 -1948.000000 844.499330
2540.820937 -1948.000000 844.407120
2538.823064 -1948.000000 844.314911
2536.825191 -1948.000000 844.222701
2534.827318 -1948.000000 844.130492
2532.829444 -1948.000000 844.038282
2530.831571 -1948.000000 843.946073
2528.833698 -1948.000000 843.853863
2526.835825 -1948.000000 843.761653
2524.837951 -1948.000000 843.669444
2522.840078 -1948.000000 843.577234
2520.842205 -1948.000000 843.485025
2518.844332 -1948.000000 843.392815
2516.846459 -1948.000000 843.300606
2514.848585 -1948.000000 843.208396
2512.850712 -1948.000000 843.116187
2510.852839 -1948.000000 843.023977
2508.854966 -1948.000000 842.931768
2506.857092 -1948.000000 842.839558
2504.859219 -1948.000000 842.747349
2502.861346 -1948.000000 842.655139
2500.863473 -1948.000000 842.562930
2498.865600 -1948.000000 842.470720
2496.867726 -1948.000000 842.378510
2494.869853 -1948.000000 842.286301
2492.871980 -1948.000000 842.194091
2490.874107 -1948.000000 842.101882
2488.876233 -1948.000000 842.009672
2486.878360 -1948.000000 841.917463
2484.880487 -1948.000000 841.825253
2482.882614 -1948.000000 841.733044
2480.884741 -1948.000000 841.640834
2478.886867 -1948.000000 841.548625
2476.888994 -1948.000000 841.456415
2474.891121 -1948.000000 841.364206
2472.893248 -1948.000000 841.271996
2470.895375 -1948.000000 841.179787
2468.897501 -1948.000000 841.087577
2466.899628 -1948.000000 840.995367
2464.901755 -1948.000000 840.903158
2462.903882 -1948.000000 840.810948
2460.906008 -1948.000000 840.718739
2458.908135 -1948.000000 840.626529
2456.910262 -1948.000000 840.534320
2454.912389 -1948.000000 840.442110
2452.914516 -1948.000000 840.349901
2450.916642 -1948.000000 840.257691
2448.918769 -1948.000000 840.165482
2446.920896 -1948.000000 840.073272
2444.923023 -1948.000000 839.981063
2442.925149 -1948.000000 839.888853
2440.927276 -1948.000000 839.796644
2438.929403 -1948.000000 839.704434
2436.931530 -1948.000000 839.612224
2434.933657 -1948.000000 839.520015
2432.935783 -1948.000000 839.427805
2430.937910 -1948.000000 839.335596
2428.940037 -1948.000000 839.243386
2426.942164 -1948.000000 839.151177
2424.944290 -1948.000000 839.058967
2422.946417 -1948.000000 838.966758
2420.948544 -1948.000000 838.874548
2418.950671 -1948.000000 838.782339
2416.952798 -1948.000000 838.690129
2414.954924 -1948.000000 838.597920
2412.957051 -1948.000000 838.505710
2410.959178 -1948.000000 838.413501
2408.961305 -1948.000000 838.321291
2406.963431 -1948.000000 838.229081
2404.965558 -1948.000000 838.136872
2402.967685 -1948.000000 838.044662
2400.969812 -1948.000000 837.952453
2398.971939 -1948.000000 837.860243
2396.974065 -1948.000000 837.768034
2394.976192 -1948.000000 837.675824
2392.978319 -1948.000000 837.583615
2390.980446 -1948.000000 837.491405
2388.982572 -1948.000000 837.399196
2386.984699 -1948.000000 837.306986
2384.986826 -1948.000000 837.214777
2382.988953 -1948.000000 837.122567
2380.991080 -1948.000000 837.030358
2378.993206 -1948.000000 836.938148
2376.995333 -1948.000000 836.845938
2374.997460 -1948.000000 836.753729
2372.999587 -1948.000000 836.661519
2371.001714 -1948.000000 836.569310
2369.003840 -1948.000000 836.477100
2367.005967 -1948.000000 836.384891
2365.008094 -1948.000000 836.292681
2363.010221 -1948.000000 836.200472
2361.012347 -1948.000000 836.108262
2359.014474 -1948.000000 836.016053
2357.016601 -1948.000000 835.923843
2355.018728 -1948.000000 835.831634
2353.020855 -1948.000000 835.739424
2351.022981 -1948.000000 835.647215
2349.025108 -1948.000000 835.555005
2347.027235 -1948.000000 835.462795
2345.029362 -1948.000000 835.370586
2343.031488 -1948.000000 835.278376
2341.033615 -1948.000000 835.186167
2339.035742 -1948.000000 835.093957
2337.037869 -1948.000000 835.001748
2335.039996 -1948.000000 834.909538
2333.042122 -1948.000000 834.817329
2331.044249 -1948.000000 834.725119
2329.046376 -1948.000000 834.632910
2327.048503 -1948.000000 834.540700
2325.050629 -1948.000000 834.448491
2323.052756 -1948.000000 834.356281
2321.054883 -1948.000000 834.264072
2319.057010 -1948.000000 834.171862
2317.059137 -1948.000000 834.079652
2315.061263 -1948.000000 833.987443
2313.063390 -1948.000000 833.895233
2311.065517 -1948.000000 833.803024
2309.067644 -1948.000000 833.710814
2307.069770 -1948.000000 833.618605
2305.071897 -1948.000000 833.526395
2303.074024 -1948.000000 833.434186
2301.076151 -1948.000000 833.341976
2299.078278 -1948.000000 833.249767
2297.080404 -1948.000000 833.157557
2295.082531 -1948.000000 833.065348
2293.084658 -1948.000000 832.973138
2291.086785 -1948.000000 832.880929
2289.088912 -1948.000000 832.788719
2287.091038 -1948.000000 832.696509
2285.093165 -1948.000000 832.604300
2283.095292 -1948.000000 832.512090
2281.097419 -1948.000000 832.419881
2279.099545 -1948.000000 832.327671
2277.101672 -1948.000000 832.235462
2275.103799 -1948.000000 832.143252
2272.000000 -1948.000000 832.000000
2270.000000 -1948.000000 832.000000
2268.000000 -1948.000000 832.000000
2266.000000 -1948.000000 832.000000
2264.000000 -1948.000000 832.000000
2262.000000 -1948.000000 832.000000
2260.000000 -1948.000000 832.000000
2258.000000 -1948.000000 832.000000
2256.000000 -1948.000000 832.000000
2254.000000 -1948.000000 832.000000
2252.000000 -1948.000000 832.000000
2250.000000 -1948.000000 832.000000
2248.000000 -1948.000000 832.000000
2246.000000 -1948.000000 832.000000
2244.000000 -1948.000000 832.000000
2242.000000 -1948.000000 832.000000
2240.000000 -1948.000000 832.000000
2238.000000 -1948.000000 832.000000
2236.000000 -1948.000000 832.000000
2234.000000 -1948.000000 832.000000
2232.000000 -1948.000000 832.000000
2230.000000 -1948.000000 832.000000
2228.000000 -1948.000000 832.000000
2226.000000 -1948.000000 832.000000
2224.000000 -1948.000000 832.000000
2222.000000 -1948.000000 832.000000
2220.000000 -1948.000000 832.000000
2218.000000 -1948.000000 832.000000
2216.000000 -1948.000000 832.000000
2214.000000 -1948.000000 832.000000
2212.000000 -1948.000000 832.000000
2210.000000 -1948.000000 832.000000
2208.000000 -1948.000000 832.000000
2206.000000 -1948.000000 832.000000
2204.000000 -1948.000000 832.000000
2202.000000 -1948.000000 832.000000
2200.000000 -1948.000000 832.000000
2198.000000 -1948.000000 832.000000
2196.000000 -1948.000000 832.000000
2194.000000 -1948.000000 832.000000
2192.000000 -1948.000000 832.000000
2190.000000 -1948.000000 832.000000
2188.000000 -1948.000000 832.000000
2186.000000 -1948.000000 832.000000
2184.000000 -1948.000000 832.000000
2182.000000 -1948.000000 832.000000
2180.000000 -1948.000000 832.000000
2178.000000 -1948.000000 832.000000
2176.000000 -1948.000000 832.000000
2174.000000 -1948.000000 832.000000
2172.000000 -1948.000000 832.000000
2170.000000 -1948.000000 832.000000
2168.000000 -1948.000000 832.000000
2166.000000 -1948.000000 832.000000
2164.000000 -1948.000000 832.000000
2162.000000 -1948.000000 832.000000
2160.000000 -1948.000000 832.000000
2158.000000 -1948.000000 832.000000
2156.000000 -1948.000000 832.000000
2154.000000 -1948.000000 832.000000
2152.000000 -1948.000000 832.000000
2150.000000 -1948.000000 832.000000
2148.000000 -1948.000000 832.000000
2146.000000 -1948.000000 832.000000
2144.000000 -1948.000000 832.000000
2142.000000 -1948.000000 832.000000
2140.000000 -1948.000000 832.000000
2138.000000 -1948.000000 832.000000
2136.000000 -1948.000000 832.000000
2134.000000 -1948.000000 832.000000
2132.000000 -1948.000000 832.000000
2130.000000 -1948.000000 832.000000
2128.000000 -1948.000000 832.000000
2126.000000 -1948.000000 832.000000
2124.000000 -1948.000000 832.000000
2122.000000 -1948.000000 832.000000
2120.000000 -1948.000000 832.000000
2118.000000 -1948.000000 832.000000
2116.000000 -1948.000000 832.000000
2114.000000 -1948.000000 832.000000
2112.000000 -1948.000000 832.000000
2110.000000 -1948.000000 832.000000
2108.000000 -1948.000000 832.000000
2106.000000 -1948.000000 832.000000
2104.000000 -1948.000000 832.000000
2102.000000 -1948.000000 832.000000
2100.000000 -1948.000000 832.000000
2098.000000 -1948.000000 832.000000
2096.000000 -1948.000000 832.000000
2094.000000 -1948.000000 832.000000
2092.000000 -1948.000000 832.000000
2090.000000 -1948.000000 832.000000
2088.000000 -1948.000000 832.000000
2086.000000 -1948.000000 832.000000
2084.000000 -1948.000000 832.000000
2082.000000 -1948.000000 832.000000
