4508.000000 510.000000 904.000000
4508.000000 508.000000 904.000000
4508.000000 506.000000 904.000000
4508.000000 504.000000 904.000000
4508.000000 502.000000 904.000000
4508.000000 500.000000 904.000000
4508.000000 498.000000 904.000000
4508.000000 496.000000 904.000000
4508.000000 494.000000 904.000000
4508.000000 492.000000 904.000000
4508.000000 490.000000 904.000000
4508.000000 488.000000 904.000000
4508.000000 486.000000 904.000000
4508.000000 484.000000 904.000000
4508.000000 482.000000 904.000000
4508.000000 480.000000 904.000000
4508.000000 478.000000 904.000000
4508.000000 476.000000 904.000000
4508.000000 474.000000 904.000000
4508.000000 472.000000 904.000000
4508.000000 470.000000 904.000000
4508.000000 468.000000 904.000000
4508.000000 466.000000 904.000000
4508.000000 464.000000 904.000000
4508.000000 462.000000 904.000000
4508.000000 460.000000 904.000000
4508.000000 458.000000 904.000000
4508.000000 456.000000 904.000000
4508.000000 454.000000 904.000000
4508.000000 452.000000 904.000000
4508.000000 450.000000 904.000000
4508.000000 448.000000 904.000000
4508.000000 446.000000 904.000000
4508.000000 444.000000 904.000000
4508.000000 442.000000 904.000000
4508.000000 440.000000 904.000000
4508.000000 438.000000 904.000000
4508.000000 436.000000 904.000000
4508.000000 434.000000 904.000000
4508.000000 432.000000 904.000000
4508.000000 430.000000 904.000000
4508.000000 428.000000 904.000000
4508.000000 426.000000 904.000000
4508.000000 424.000000 904.000000
4508.000000 422.000000 904.000000
4508.000000 420.000000 904.000000
4508.000000 418.000000 904.000000
4508.000000 416.000000 904.000000
4508.000000 414.000000 904.000000
4508.000000 412.000000 904.000000
4508.000000 410.000000 904.000000
4508.000000 408.000000 904.000000
4508.000000 406.000000 904.000000
4508.000000 404.000000 904.000000
4508.000000 402.000000 904.000000
4508.000000 400.000000 904.000000
4508.000000 398.000000 904.000000
4508.000000 396.000000 904.000000
4508.000000 394.000000 904.000000
4508.000000 392.000000 904.000000
4508.000000 390.000000 904.000000
4508.000000 388.000000 904.000000
4508.000000 386.000000 904.000000
4508.000000 384.000000 904.000000
4508.000000 382.000000 904.000000
4508.000000 380.000000 904.000000
4508.000000 378.000000 904.000000
4508.000000 376.000000 904.000000
4508.000000 374.000000 904.000000
4508.000000 372.000000 904.000000
4508.000000 370.000000 904.000000
4508.000000 368.000000 904.000000
4508.000000 366.000000 904.000000
4508.000000 364.000000 904.000000
4508.000000 362.000000 904.000000
4508.000000 360.000000 904.000000
4508.000000 358.000000 904.000000
4508.000000 356.000000 904.000000
4508.000000 354.000000 904.000000
4508.000000 352.000000 904.000000
4508.000000 350.000000 904.000000
4508.000000 348.000000 904.000000
4508.000000 346.000000 904.000000
4508.000000 344.000000 904.000000
4508.000000 342.000000 904.000000
4508.000000 340.000000 904.000000
4508.000000 338.000000 904.000000
4508.000000 336.000000 904.000000
4508.000000 334.000000 904.000000
4508.000000 332.000000 904.000000
4508.000000 330.000000 904.000000
4508.000000 328.000000 904.000000
4508.000000 326.000000 904.000000
4508.000000 324.000000 904.000000
4508.000000 322.000000 904.000000
4508.000000 320.000000 904.000000
4508.000000 318.000000 904.000000
4508.000000 316.000000 904.000000
4508.000000 314.000000 904.000000
4508.000000 312.000000 904.000000
4508.000000 310.000000 904.000000
4508.000000 308.000000 904.000000
4508.000000 306.000000 904.000000
4508.000000 304.000000 904.000000
4508.000000 302.000000 904.000000
4508.000000 300.000000 904.000000
4508.000000 298.000000 904.000000
4508.000000 296.000000 904.000000
4508.000000 294.000000 904.000000
4508.000000 292.000000 904.000000
4508.000000 290.000000 904.000000
4508.000000 288.000000 904.000000
4508.000000 286.000000 904.000000
4508.000000 284.000000 904.000000
4508.000000 282.000000 904.000000
4508.000000 280.000000 904.000000
4508.000000 278.000000 904.000000
4508.000000 276.000000 904.000000
4508.000000 274.000000 904.000000
4508.000000 272.000000 904.000000
4508.000000 270.000000 904.000000
4508.000000 268.000000 904.000000
4508.000000 266.000000 904.000000
4508.000000 264.000000 904.000000
4508.000000 262.000000 904.000000
4508.000000 260.000000 904.000000
4508.000000 258.000000 904.000000
4508.000000 256.000000 904.000000
4508.000000 254.000000 904.000000
4508.000000 252.000000 904.000000
4508.000000 250.000000 904.000000
4508.000000 248.000000 904.000000
4508.000000 246.000000 904.000000
4508.000000 244.000000 904.000000
4508.000000 242.000000 904.000000
4508.000000 240.000000 904.000000
4508.000000 238.000000 904.000000
4508.000000 236.000000 904.000000
4508.000000 234.000000 904.000000
4508.000000 232.000000 904.000000
4508.000000 230.000000 904.000000
4508.000000 228.000000 904.000000
4508.000000 226.000000 904.000000
4508.000000 224.000000 904.000000
4508.000000 222.000000 904.000000
4508.000000 220.000000 904.000000
4508.000000 218.000000 904.000000
4508.000000 216.000000 904.000000
4508.000000 214.000000 904.000000
4508.000000 212.000000 904.000000
4508.000000 210.000000 904.000000
4508.000000 208.000000 904.000000
4508.000000 206.000000 904.000000
4508.000000 204.000000 904.000000
4508.000000 202.000000 904.000000
4508.000000 200.000000 904.000000
4508.000000 198.000000 904.000000
4508.000000 196.000000 904.000000
4508.000000 194.000000 904.000000
4508.000000 192.000000 904.000000
4508.000000 190.000000 904.000000
4508.000000 188.000000 904.000000
4508.000000 186.000000 904.000000
4508.000000 184.000000 904.000000
4508.000000 182.000000 904.000000
4508.000000 180.000000 904.000000
4508.000000 178.000000 904.000000
4508.000000 176.000000 904.000000
4508.000000 174.000000 904.000000
4508.000000 172.000000 904.000000
4508.000000 170.000000 904.000000
4508.000000 168.000000 904.000000
4508.000000 166.000000 904.000000
4508.000000 164.000000 904.000000
4508.000000 162.000000 904.000000
4508.000000 160.000000 904.000000
4508.000000 158.000000 904.000000
4508.000000 156.000000 904.000000
4508.000000 154.000000 904.000000
4508.000000 152.000000 904.000000
4508.000000 150.000000 904.000000
4508.000000 148.000000 904.000000
4508.000000 146.000000 904.000000
4508.000000 144.000000 904.000000
4508.000000 142.000000 904.000000
4508.000000 140.000000 904.000000
4508.000000 138.000000 904.000000
4508.000000 136.000000 904.000000
4508.000000 134.000000 904.000000
4508.000000 132.000000 904.000000
4508.000000 130.000000 904.000000
4508.000000 128.000000 904.000000
4508.000000 126.000000 904.000000
4508.000000 124.000000 904.000000
4508.000000 122.000000 904.000000
4508.000000 120.000000 904.000000
4508.000000 118.000000 904.000000
4508.000000 116.000000 904.000000
4508.000000 114.000000 904.000000
4508.000000 112.000000 904.000000
4508.000000 110.000000 904.000000
4508.000000 108.000000 904.000000
4508.000000 106.000000 904.000000
4508.000000 104.000000 904.000000
4508.000000 102.000000 904.000000
4508.000000 100.000000 904.000000
4508.000000 98.000000 904.000000
4508.000000 96.000000 904.000000
4508.000000 94.000000 904.000000
4508.000000 92.000000 904.000000
4508.000000 90.000000 904.000000
4508.000000 88.000000 904.000000
4508.000000 86.000000 904.000000
4508.000000 84.000000 904.000000
4508.000000 82.000000 904.000000
4508.000000 80.000000 904.000000
4508.000000 78.000000 904.000000
4508.000000 76.000000 904.000000
4508.000000 74.000000 904.000000
4508.000000 72.000000 904.000000
4508.000000 70.000000 904.000000
4508.000000 68.000000 904.000000
4508.000000 66.000000 904.000000
4508.000000 64.000000 904.000000
4508.000000 62.000000 904.000000
4508.000000 60.000000 904.000000
4508.000000 58.000000 904.000000
4508.000000 56.000000 904.000000
4508.000000 54.000000 904.000000
4508.000000 52.000000 904.000000
4508.000000 50.000000 904.000000
4508.000000 48.000000 904.000000
4508.000000 46.000000 904.000000
4508.000000 44.000000 904.000000
4508.000000 42.000000 904.000000
4508.000000 40.000000 904.000000
4508.000000 38.000000 904.000000
4508.000000 36.000000 904.000000
4508.000000 34.000000 904.000000
4508.000000 32.000000 904.000000
4508.000000 30.000000 904.000000
4508.000000 28.000000 904.000000
4508.000000 26.000000 904.000000
4508.000000 24.000000 904.000000
4508.000000 22.000000 904.000000
4508.000000 20.000000 904.000000
4508.000000 18.000000 904.000000
4508.000000 16.000000 904.000000
4508.000000 14.000000 904.000000
4508.000000 12.000000 904.000000
4508.000000 10.000000 904.000000
4508.000000 8.000000 904.000000
4508.000000 6.000000 904.000000
4508.000000 4.000000 904.000000
4508.000000 2.000000 904.000000
4508.000000 0.000000 904.000000
4508.000000 -2.000000 904.000000
4508.000000 -4.000000 904.000000
4508.000000 -6.000000 904.000000
4508.000000 -8.000000 904.000000
4508.000000 -10.000000 904.000000
4508.000000 -12.000000 904.000000
4508.000000 -14.000000 904.000000
4508.000000 -16.000000 904.000000
4508.000000 -18.000000 904.000000
4508.000000 -20.000000 904.000000
4508.000000 -22.000000 904.000000
4508.000000 -24.000000 904.000000
4508.000000 -26.000000 904.000000
4508.000000 -28.000000 904.000000
4508.000000 -30.000000 904.000000
4508.000000 -32.000000 904.000000
4508.000000 -34.000000 904.000000
4508.000000 -36.000000 904.000000
4508.000000 -38.000000 904.000000
4508.000000 -40.000000 904.000000
4508.000000 -42.000000 904.000000
4508.000000 -44.000000 904.000000
4508.000000 -46.000000 904.000000
4508.000000 -48.000000 904.000000
4508.000000 -50.000000 904.000000
4508.000000 -52.000000 904.000000
4508.000000 -54.000000 904.000000
4508.000000 -56.000000 904.000000
4508.000000 -58.000000 904.000000
4508.000000 -60.000000 904.000000
4508.000000 -62.000000 904.000000
4508.000000 -64.000000 904.000000
4508.000000 -66.000000 904.000000
4508.000000 -68.000000 904.000000
4508.000000 -70.000000 904.000000
4508.000000 -72.000000 904.000000
4508.000000 -74.000000 904.000000
4508.000000 -76.000000 904.000000
4508.000000 -80.000000 904.000000
4508.000000 -81.999830 903.973915
4508.000000 -83.999660 903.947831
4508.000000 -85.999490 903.921746
4508.000000 -87.999320 903.895661
4508.000000 -89.999149 903.869576
4508.000000 -91.998979 903.843492
4508.000000 -93.998809 903.817407
4508.000000 -95.998639 903.791322
4508.000000 -97.998469 903.765237
4508.000000 -99.998299 903.739153
4508.000000 -101.998129 903.713068
4508.000000 -103.997959 903.686983
4508.000000 -105.997789 903.660898
4508.000000 -107.997618 903.634814
4508.000000 -109.997448 903.608729
4508.000000 -111.997278 903.582644
4508.000000 -113.997108 903.556559
4508.000000 -115.996938 903.530475
4508.000000 -117.996768 903.504390
4508.000000 -119.996598 903.478305
4508.000000 -121.996428 903.452221
4508.000000 -123.996258 903.426136
4508.000000 -125.996087 903.400051
4508.000000 -127.995917 903.373966
4508.000000 -129.995747 903.347882
4508.000000 -131.995577 903.321797
4508.000000 -133.995407 903.295712
4508.000000 -135.995237 903.269627
4508.000000 -137.995067 903.243543
4508.000000 -139.994897 903.217458
4508.000000 -141.994727 903.191373
4508.000000 -143.994556 903.165288
4508.000000 -145.994386 903.139204
4508.000000 -147.994216 903.113119
4508.000000 -149.994046 903.087034
4508.000000 -151.993876 903.060949
4508.000000 -153.993706 903.034865
4508.000000 -155.993536 903.008780
4508.000000 -157.993366 902.982695
4508.000000 -159.993196 902.956610
4508.000000 -161.993025 902.930526
4508.000000 -163.992855 902.904441
4508.000000 -165.992685 902.878356
4508.000000 -167.992515 902.852272
4508.000000 -169.992345 902.826187
4508.000000 -171.992175 902.800102
4508.000000 -173.992005 902.774017
4508.000000 -175.991835 902.747933
4508.000000 -177.991665 902.721848
4508.000000 -179.991494 902.695763
4508.000000 -181.991324 902.669678
4508.000000 -183.991154 902.643594
4508.000000 -185.990984 902.617509
4508.000000 -187.990814 902.591424
4508.000000 -189.990644 902.565339
4508.000000 -191.990474 902.539255
4508.000000 -193.990304 902.513170
4508.000000 -195.990134 902.487085
4508.000000 -197.989963 902.461000
4508.000000 -199.989793 902.434916
4508.000000 -201.989623 902.408831
4508.000000 -203.989453 902.382746
4508.000000 -205.989283 902.356662
4508.000000 -207.989113 902.330577
4508.000000 -209.988943 902.304492
4508.000000 -211.988773 902.278407
4508.000000 -213.988603 902.252323
4508.000000 -215.988432 902.226238
4508.000000 -217.988262 902.200153
4508.000000 -219.988092 902.174068
4508.000000 -221.987922 902.147984
4508.000000 -223.987752 902.121899
4508.000000 -225.987582 902.095814
4508.000000 -227.987412 902.069729
4508.000000 -229.987242 902.043645
4508.000000 -231.987072 902.017560
4508.000000 -233.986901 901.991475
4508.000000 -235.986731 901.965390
4508.000000 -237.986561 901.939306
4508.000000 -239.986391 901.913221
4508.000000 -241.986221 901.887136
4508.000000 -243.986051 901.861052
4508.000000 -245.985881 901.834967
4508.000000 -247.985711 901.808882
4508.000000 -249.985541 901.782797
4508.000000 -251.985370 901.756713
4508.000000 -253.985200 901.730628
4508.000000 -255.985030 901.704543
4508.000000 -257.984860 901.678458
4508.000000 -259.984690 901.652374
4508.000000 -261.984520 901.626289
4508.000000 -263.984350 901.600204
4508.000000 -265.984180 901.574119
4508.000000 -267.984010 901.548035
4508.000000 -269.983839 901.521950
4508.000000 -271.983669 901.495865
4508.000000 -273.983499 901.469780
4508.000000 -275.983329 901.443696
4508.000000 -277.983159 901.417611
4508.000000 -279.982989 901.391526
4508.000000 -281.982819 901.365441
4508.000000 -283.982649 901.339357
4508.000000 -285.982479 901.313272
4508.000000 -287.982308 901.287187
4508.000000 -289.982138 901.261103
4508.000000 -291.981968 901.235018
4508.000000 -293.981798 901.208933
4508.000000 -295.981628 901.182848
4508.000000 -297.981458 901.156764
4508.000000 -299.981288 901.130679
4508.000000 -301.981118 901.104594
4508.000000 -303.980948 901.078509
4508.000000 -305.980778 901.052425
4508.000000 -307.980607 901.026340
4508.000000 -309.980437 901.000255
4508.000000 -311.980267 900.974170
4508.000000 -313.980097 900.948086
4508.000000 -315.979927 900.922001
4508.000000 -317.979757 900.895916
4508.000000 -319.979587 900.869831
4508.000000 -321.979417 900.843747
4508.000000 -323.979247 900.817662
4508.000000 -325.979076 900.791577
4508.000000 -327.978906 900.765493
4508.000000 -329.978736 900.739408
4508.000000 -331.978566 900.713323
4508.000000 -333.978396 900.687238
4508.000000 -335.978226 900.661154
4508.000000 -337.978056 900.635069
4508.000000 -339.977886 900.608984
4508.000000 -341.977716 900.582899
4508.000000 -343.977545 900.556815
4508.000000 -345.977375 900.530730
4508.000000 -347.977205 900.504645
4508.000000 -349.977035 900.478560
4508.000000 -351.976865 900.452476
4508.000000 -353.976695 900.426391
4508.000000 -355.976525 900.400306
4508.000000 -357.976355 900.374221
4508.000000 -359.976185 900.348137
4508.000000 -361.976014 900.322052
4508.000000 -363.975844 900.295967
4508.000000 -365.975674 900.269883
4508.000000 -367.975504 900.243798
4508.000000 -369.975334 900.217713
4508.000000 -371.975164 900.191628
4508.000000 -373.974994 900.165544
4508.000000 -375.974824 900.139459
4508.000000 -377.974654 900.113374
4508.000000 -379.974483 900.087289
4508.000000 -381.974313 900.061205
4508.000000 -383.974143 900.035120
4508.000000 -385.973973 900.009035
4508.000000 -387.973803 899.982950
4508.000000 -389.973633 899.956866
4508.000000 -391.973463 899.930781
4508.000000 -393.973293 899.904696
4508.000000 -395.973123 899.878611
4508.000000 -397.972952 899.852527
4508.000000 -399.972782 899.826442
4508.000000 -401.972612 899.800357
4508.000000 -403.972442 899.774272
4508.000000 -405.972272 899.748188
4508.000000 -407.972102 899.722103
4508.000000 -409.971932 899.696018
4508.000000 -411.971762 899.669934
4508.000000 -413.971592 899.643849
4508.000000 -415.971421 899.617764
4508.000000 -417.971251 899.591679
4508.000000 -419.971081 899.565595
4508.000000 -421.970911 899.539510
4508.000000 -423.970741 899.513425
4508.000000 -425.970571 899.487340
4508.000000 -427.970401 899.461256
4508.000000 -429.970231 899.435171
4508.000000 -431.970061 899.409086
4508.000000 -433.969890 899.383001
4508.000000 -435.969720 899.356917
4508.000000 -437.969550 899.330832
4508.000000 -439.969380 899.304747
4508.000000 -441.969210 899.278662
4508.000000 -443.969040 899.252578
4508.000000 -445.968870 899.226493
4508.000000 -447.968700 899.200408
4508.000000 -449.968530 899.174324
4508.000000 -451.968359 899.148239
4508.000000 -453.968189 899.122154
4508.000000 -455.968019 899.096069
4508.000000 -457.967849 899.069985
4508.000000 -459.967679 899.043900
4508.000000 -461.967509 899.017815
4508.000000 -463.967339 898.991730
4508.000000 -465.967169 898.965646
4508.000000 -467.966999 898.939561
4508.000000 -469.966828 898.913476
4508.000000 -471.966658 898.887391
4508.000000 -473.966488 898.861307
4508.000000 -475.966318 898.835222
4508.000000 -477.966148 898.809137
4508.000000 -479.965978 898.783052
4508.000000 -481.965808 898.756968
4508.000000 -483.965638 898.730883
4508.000000 -485.965468 898.704798
4508.000000 -487.965297 898.678714
4508.000000 -489.965127 898.652629
4508.000000 -491.964957 898.626544
4508.000000 -493.964787 898.600459
4508.000000 -495.964617 898.574375
4508.000000 -497.964447 898.548290
4508.000000 -499.964277 898.522205
4508.000000 -501.964107 898.496120
4508.000000 -503.963937 898.470036
4508.000000 -505.963766 898.443951
4508.000000 -507.963596 898.417866
4508.000000 -509.963426 898.391781
4508.000000 -511.963256 898.365697
4508.000000 -513.963086 898.339612
4508.000000 -515.962916 898.313527
4508.000000 -517.962746 898.287442
4508.000000 -519.962576 898.261358
4508.000000 -521.962406 898.235273
4508.000000 -523.962235 898.209188
4508.000000 -525.962065 898.183103
4508.000000 -527.961895 898.157019
4508.000000 -529.961725 898.130934
4508.000000 -531.961555 898.104849
4508.000000 -533.961385 898.078765
4508.000000 -535.961215 898.052680
4508.000000 -537.961045 898.026595
4508.000000 -539.960875 898.000510
4508.000000 -541.960704 897.974426
4508.000000 -543.960534 897.948341
4508.000000 -545.960364 897.922256
4508.000000 -547.960194 897.896171
4508.000000 -549.960024 897.870087
4508.000000 -551.959854 897.844002
4508.000000 -553.959684 897.817917
4508.000000 -555.959514 897.791832
4508.000000 -557.959344 897.765748
4508.000000 -559.959173 897.739663
4508.000000 -561.959003 897.713578
4508.000000 -563.958833 897.687493
4508.000000 -565.958663 897.661409
4508.000000 -567.958493 897.635324
4508.000000 -569.958323 897.609239
4508.000000 -571.958153 897.583155
4508.000000 -573.957983 897.557070
4508.000000 -575.957813 897.530985
4508.000000 -577.957642 897.504900
4508.000000 -579.957472 897.478816
4508.000000 -581.957302 897.452731
4508.000000 -583.957132 897.426646
4508.000000 -585.956962 897.400561
4508.000000 -587.956792 897.374477
4508.000000 -589.956622 897.348392
4508.000000 -591.956452 897.322307
4508.000000 -593.956282 897.296222
4508.000000 -595.956111 897.270138
4508.000000 -597.955941 897.244053
4508.000000 -599.955771 897.217968
4508.000000 -601.955601 897.191883
4508.000000 -603.955431 897.165799
4508.000000 -605.955261 897.139714
4508.000000 -607.955091 897.113629
4508.000000 -609.954921 897.087545
4508.000000 -611.954751 897.061460
4508.000000 -613.954580 897.035375
4508.000000 -615.954410 897.009290
4508.000000 -617.954240 896.983206
4508.000000 -619.954070 896.957121
4508.000000 -621.953900 896.931036
4508.000000 -623.953730 896.904951
4508.000000 -625.953560 896.878867
4508.000000 -627.953390 896.852782
4508.000000 -629.953220 896.826697
4508.000000 -631.953049 896.800612
4508.000000 -633.952879 896.774528
4508.000000 -635.952709 896.748443
4508.000000 -637.952539 896.722358
4508.000000 -639.952369 896.696273
4508.000000 -641.952199 896.670189
4508.000000 -643.952029 896.644104
4508.000000 -645.951859 896.618019
4508.000000 -647.951689 896.591934
4508.000000 -649.951518 896.565850
4508.000000 -651.951348 896.539765
4508.000000 -653.951178 896.513680
4508.000000 -655.951008 896.487596
4508.000000 -657.950838 896.461511
4508.000000 -659.950668 896.435426
4508.000000 -661.950498 896.409341
4508.000000 -663.950328 896.383257
4508.000000 -665.950158 896.357172
4508.000000 -667.949987 896.331087
4508.000000 -669.949817 896.305002
4508.000000 -671.949647 896.278918
4508.000000 -673.949477 896.252833
4508.000000 -675.949307 896.226748
4508.000000 -677.949137 896.200663
4508.000000 -679.948967 896.174579
4508.000000 -681.948797 896.148494
4508.000000 -683.948627 896.122409
4508.000000 -685.948456 896.096324
4508.000000 -687.948286 896.070240
4508.000000 -689.948116 896.044155
4508.000000 -691.947946 896.018070
4508.000000 -693.947776 895.991986
4508.000000 -695.947606 895.965901
4508.000000 -697.947436 895.939816
4508.000000 -699.947266 895.913731
4508.000000 -701.947096 895.887647
4508.000000 -703.946925 895.861562
4508.000000 -705.946755 895.835477
4508.000000 -707.946585 895.809392
4508.000000 -709.946415 895.783308
4508.000000 -711.946245 895.757223
4508.000000 -713.946075 895.731138
4508.000000 -715.945905 895.705053
4508.000000 -717.945735 895.678969
4508.000000 -719.945565 895.652884
4508.000000 -721.945394 895.626799
4508.000000 -723.945224 895.600714
4508.000000 -725.945054 895.574630
4508.000000 -727.944884 895.548545
4508.000000 -729.944714 895.522460
4508.000000 -731.944544 895.496376
4508.000000 -733.944374 895.470291
4508.000000 -735.944204 895.444206
4508.000000 -737.944034 895.418121
4508.000000 -739.943863 895.392037
4508.000000 -741.943693 895.365952
4508.000000 -743.943523 895.339867
4508.000000 -745.943353 895.313782
4508.000000 -747.943183 895.287698
4508.000000 -749.943013 895.261613
4508.000000 -751.942843 895.235528
4508.000000 -753.942673 895.209443
4508.000000 -755.942503 895.183359
4508.000000 -757.942332 895.157274
4508.000000 -759.942162 895.131189
4508.000000 -761.941992 895.105104
4508.000000 -763.941822 895.079020
4508.000000 -765.941652 895.052935
4508.000000 -767.941482 895.026850
4508.000000 -769.941312 895.000765
4508.000000 -771.941142 894.974681
4508.000000 -773.940972 894.948596
4508.000000 -775.940802 894.922511
4508.000000 -777.940631 894.896427
4508.000000 -779.940461 894.870342
4508.000000 -781.940291 894.844257
4508.000000 -783.940121 894.818172
4508.000000 -785.939951 894.792088
4508.000000 -787.939781 894.766003
4508.000000 -789.939611 894.739918
4508.000000 -791.939441 894.713833
4508.000000 -793.939271 894.687749
4508.000000 -795.939100 894.661664
4508.000000 -797.938930 894.635579
4508.000000 -799.938760 894.609494
4508.000000 -801.938590 894.583410
4508.000000 -803.938420 894.557325
4508.000000 -805.938250 894.531240
4508.000000 -807.938080 894.505155
4508.000000 -809.937910 894.479071
4508.000000 -811.937740 894.452986
4508.000000 -813.937569 894.426901
4508.000000 -815.937399 894.400817
4508.000000 -817.937229 894.374732
4508.000000 -819.937059 894.348647
4508.000000 -821.936889 894.322562
4508.000000 -823.936719 894.296478
4508.000000 -825.936549 894.270393
4508.000000 -827.936379 894.244308
4508.000000 -829.936209 894.218223
4508.000000 -831.936038 894.192139
4508.000000 -833.935868 894.166054
4508.000000 -835.935698 894.139969
4508.000000 -837.935528 894.113884
4508.000000 -839.935358 894.087800
4508.000000 -841.935188 894.061715
4508.000000 -843.935018 894.035630
4508.000000 -845.934848 894.009545
4508.000000 -847.934678 893.983461
4508.000000 -849.934507 893.957376
4508.000000 -851.934337 893.931291
4508.000000 -853.934167 893.905207
4508.000000 -855.933997 893.879122
4508.000000 -857.933827 893.853037
4508.000000 -859.933657 893.826952
4508.000000 -861.933487 893.800868
4508.000000 -863.933317 893.774783
4508.000000 -865.933147 893.748698
4508.000000 -867.932976 893.722613
4508.000000 -869.932806 893.696529
4508.000000 -871.932636 893.670444
4508.000000 -873.932466 893.644359
4508.000000 -875.932296 893.618274
4508.000000 -877.932126 893.592190
4508.000000 -879.931956 893.566105
4508.000000 -881.931786 893.540020
4508.000000 -883.931616 893.513935
4508.000000 -885.931445 893.487851
4508.000000 -887.931275 893.461766
4508.000000 -889.931105 893.435681
4508.000000 -891.930935 893.409596
4508.000000 -893.930765 893.383512
4508.000000 -895.930595 893.357427
4508.000000 -897.930425 893.331342
4508.000000 -899.930255 893.305258
4508.000000 -901.930085 893.279173
4508.000000 -903.929914 893.253088
4508.000000 -905.929744 893.227003
4508.000000 -907.929574 893.200919
4508.000000 -909.929404 893.174834
4508.000000 -911.929234 893.148749
4508.000000 -913.929064 893.122664
4508.000000 -915.928894 893.096580
4508.000000 -917.928724 893.070495
4508.000000 -919.928554 893.044410
4508.000000 -921.928383 893.018325
4508.000000 -923.928213 892.992241
4508.000000 -925.928043 892.966156
4508.000000 -927.927873 892.940071
4508.000000 -929.927703 892.913986
4508.000000 -931.927533 892.887902
4508.000000 -933.927363 892.861817
4508.000000 -935.927193 892.835732
4508.000000 -937.927023 892.809648
4508.000000 -939.926852 892.783563
4508.000000 -941.926682 892.757478
4508.000000 -943.926512 892.731393
4508.000000 -945.926342 892.705309
4508.000000 -947.926172 892.679224
4508.000000 -949.926002 892.653139
4508.000000 -951.925832 892.627054
4508.000000 -953.925662 892.600970
4508.000000 -955.925492 892.574885
4508.000000 -957.925321 892.548800
4508.000000 -959.925151 892.522715
4508.000000 -961.924981 892.496631
4508.000000 -963.924811 892.470546
4508.000000 -965.924641 892.444461
4508.000000 -967.924471 892.418376
4508.000000 -969.924301 892.392292
4508.000000 -971.924131 892.366207
4508.000000 -973.923961 892.340122
4508.000000 -975.923790 892.314038
4508.000000 -977.923620 892.287953
4508.000000 -979.923450 892.261868
4508.000000 -981.923280 892.235783
4508.000000 -983.923110 892.209699
4508.000000 -985.922940 892.183614
4508.000000 -987.922770 892.157529
4508.000000 -989.922600 892.131444
4508.000000 -991.922430 892.105360
4508.000000 -993.922259 892.079275
4508.000000 -995.922089 892.053190
4508.000000 -997.921919 892.027105
4508.000000 -999.921749 892.001021
4508.000000 -1001.921579 891.974936
4508.000000 -1003.921409 891.948851
4508.000000 -1005.921239 891.922766
4508.000000 -1007.921069 891.896682
4508.000000 -1009.920899 891.870597
4508.000000 -1011.920728 891.844512
4508.000000 -1013.920558 891.818427
4508.000000 -1015.920388 891.792343
4508.000000 -1017.920218 891.766258
4508.000000 -1019.920048 891.740173
4508.000000 -1021.919878 891.714089
4508.000000 -1023.919708 891.688004
4508.000000 -1025.919538 891.661919
4508.000000 -1027.919368 891.635834
4508.000000 -1029.919197 891.609750
4508.000000 -1031.919027 891.583665
4508.000000 -1033.918857 891.557580
4508.000000 -1035.918687 891.531495
4508.000000 -1037.918517 891.505411
4508.000000 -1039.918347 891.479326
4508.000000 -1041.918177 891.453241
4508.000000 -1043.918007 891.427156
4508.000000 -1045.917837 891.401072
4508.000000 -1047.917666 891.374987
4508.000000 -1049.917496 891.348902
4508.000000 -1051.917326 891.322817
4508.000000 -1053.917156 891.296733
4508.000000 -1055.916986 891.270648
4508.000000 -1057.916816 891.244563
4508.000000 -1059.916646 891.218479
4508.000000 -1061.916476 891.192394
4508.000000 -1063.916306 891.166309
4508.000000 -1065.916135 891.140224
4508.000000 -1067.915965 891.114140
4508.000000 -1069.915795 891.088055
4508.000000 -1071.915625 891.061970
4508.000000 -1073.915455 891.035885
4508.000000 -1075.915285 891.009801
4508.000000 -1077.915115 890.983716
4508.000000 -1079.914945 890.957631
4508.000000 -1081.914775 890.931546
4508.000000 -1083.914604 890.905462
4508.000000 -1085.914434 890.879377
4508.000000 -1087.914264 890.853292
4508.000000 -1089.914094 890.827207
4508.000000 -1091.913924 890.801123
4508.000000 -1093.913754 890.775038
4508.000000 -1095.913584 890.748953
4508.000000 -1097.913414 890.722869
4508.000000 -1099.913244 890.696784
4508.000000 -1101.913073 890.670699
4508.000000 -1103.912903 890.644614
4508.000000 -1105.912733 890.618530
4508.000000 -1107.912563 890.592445
4508.000000 -1109.912393 890.566360
4508.000000 -1111.912223 890.540275
4508.000000 -1113.912053 890.514191
4508.000000 -1115.911883 890.488106
4508.000000 -1117.911713 890.462021
4508.000000 -1119.911542 890.435936
4508.000000 -1121.911372 890.409852
4508.000000 -1123.911202 890.383767
4508.000000 -1125.911032 890.357682
4508.000000 -1127.910862 890.331597
4508.000000 -1129.910692 890.305513
4508.000000 -1131.910522 890.279428
4508.000000 -1133.910352 890.253343
4508.000000 -1135.910182 890.227259
4508.000000 -1137.910011 890.201174
4508.000000 -1139.909841 890.175089
4508.000000 -1141.909671 890.149004
4508.000000 -1143.909501 890.122920
4508.000000 -1145.909331 890.096835
4508.000000 -1147.909161 890.070750
4508.000000 -1149.908991 890.044665
4508.000000 -1151.908821 890.018581
4508.000000 -1153.908651 889.992496
4508.000000 -1155.908480 889.966411
4508.000000 -1157.908310 889.940326
4508.000000 -1159.908140 889.914242
4508.000000 -1161.907970 889.888157
4508.000000 -1163.907800 889.862072
4508.000000 -1165.907630 889.835987
4508.000000 -1167.907460 889.809903
4508.000000 -1169.907290 889.783818
4508.000000 -1171.907120 889.757733
4508.000000 -1173.906949 889.731648
4508.000000 -1175.906779 889.705564
4508.000000 -1177.906609 889.679479
4508.000000 -1179.906439 889.653394
4508.000000 -1181.906269 889.627310
4508.000000 -1183.906099 889.601225
4508.000000 -1185.905929 889.575140
4508.000000 -1187.905759 889.549055
4508.000000 -1189.905589 889.522971
4508.000000 -1191.905418 889.496886
4508.000000 -1193.905248 889.470801
4508.000000 -1195.905078 889.444716
4508.000000 -1197.904908 889.418632
4508.000000 -1199.904738 889.392547
4508.000000 -1201.904568 889.366462
4508.000000 -1203.904398 889.340377
4508.000000 -1205.904228 889.314293
4508.000000 -1207.904058 889.288208
4508.000000 -1209.903888 889.262123
4508.000000 -1211.903717 889.236038
4508.000000 -1213.903547 889.209954
4508.000000 -1215.903377 889.183869
4508.000000 -1217.903207 889.157784
4508.000000 -1219.903037 889.131700
4508.000000 -1221.902867 889.105615
4508.000000 -1223.902697 889.079530
4508.000000 -1225.902527 889.053445
4508.000000 -1227.902357 889.027361
4508.000000 -1229.902186 889.001276
4508.000000 -1231.902016 888.975191
4508.000000 -1233.901846 888.949106
4508.000000 -1235.901676 888.923022
4508.000000 -1237.901506 888.896937
4508.000000 -1239.901336 888.870852
4508.000000 -1241.901166 888.844767
4508.000000 -1243.900996 888.818683
4508.000000 -1245.900826 888.792598
4508.000000 -1247.900655 888.766513
4508.000000 -1249.900485 888.740428
4508.000000 -1251.900315 888.714344
4508.000000 -1253.900145 888.688259
4508.000000 -1255.899975 888.662174
4508.000000 -1257.899805 888.636090
4508.000000 -1259.899635 888.610005
4508.000000 -1261.899465 888.583920
4508.000000 -1263.899295 888.557835
4508.000000 -1265.899124 888.531751
4508.000000 -1267.898954 888.505666
4508.000000 -1269.898784 888.479581
4508.000000 -1271.898614 888.453496
4508.000000 -1273.898444 888.427412
4508.000000 -1275.898274 888.401327
4508.000000 -1277.898104 888.375242
4508.000000 -1279.897934 888.349157
4508.000000 -1281.897764 888.323073
4508.000000 -1283.897593 888.296988
4508.000000 -1285.897423 888.270903
4508.000000 -1287.897253 888.244818
4508.000000 -1289.897083 888.218734
4508.000000 -1291.896913 888.192649
4508.000000 -1293.896743 888.166564
4508.000000 -1295.896573 888.140479
4508.000000 -1297.896403 888.114395
4508.000000 -1299.896233 888.088310
4508.000000 -1301.896062 888.062225
4508.000000 -1303.895892 888.036141
4508.000000 -1305.895722 888.010056
4508.000000 -1307.895552 887.983971
4508.000000 -1309.895382 887.957886
4508.000000 -1311.895212 887.931802
4508.000000 -1313.895042 887.905717
4508.000000 -1315.894872 887.879632
4508.000000 -1317.894702 887.853547
4508.000000 -1319.894531 887.827463
4508.000000 -1321.894361 887.801378
4508.000000 -1323.894191 887.775293
4508.000000 -1325.894021 887.749208
4508.000000 -1327.893851 887.723124
4508.000000 -1329.893681 887.697039
4508.000000 -1331.893511 887.670954
4508.000000 -1333.893341 887.644869
4508.000000 -1335.893171 887.618785
4508.000000 -1337.893000 887.592700
4508.000000 -1339.892830 887.566615
4508.000000 -1341.892660 887.540531
4508.000000 -1343.892490 887.514446
4508.000000 -1345.892320 887.488361
4508.000000 -1347.892150 887.462276
4508.000000 -1349.891980 887.436192
4508.000000 -1351.891810 887.410107
4508.000000 -1353.891640 887.384022
4508.000000 -1355.891469 887.357937
4508.000000 -1357.891299 887.331853
4508.000000 -1359.891129 887.305768
4508.000000 -1361.890959 887.279683
4508.000000 -1363.890789 887.253598
4508.000000 -1365.890619 887.227514
4508.000000 -1367.890449 887.201429
4508.000000 -1369.890279 887.175344
4508.000000 -1371.890109 887.149259
4508.000000 -1373.889938 887.123175
4508.000000 -1375.889768 887.097090
4508.000000 -1377.889598 887.071005
4508.000000 -1379.889428 887.044921
4508.000000 -1381.889258 887.018836
4508.000000 -1383.889088 886.992751
4508.000000 -1385.888918 886.966666
4508.000000 -1387.888748 886.940582
4508.000000 -1389.888578 886.914497
4508.000000 -1391.888407 886.888412
4508.000000 -1393.888237 886.862327
4508.000000 -1395.888067 886.836243
4508.000000 -1397.887897 886.810158
4508.000000 -1399.887727 886.784073
4508.000000 -1401.887557 886.757988
4508.000000 -1403.887387 886.731904
4508.000000 -1405.887217 886.705819
4508.000000 -1407.887047 886.679734
4508.000000 -1409.886876 886.653649
4508.000000 -1411.886706 886.627565
4508.000000 -1413.886536 886.601480
4508.000000 -1415.886366 886.575395
4508.000000 -1417.886196 886.549310
4508.000000 -1419.886026 886.523226
4508.000000 -1421.885856 886.497141
4508.000000 -1423.885686 886.471056
4508.000000 -1425.885516 886.444972
4508.000000 -1427.885345 886.418887
4508.000000 -1429.885175 886.392802
4508.000000 -1431.885005 886.366717
4508.000000 -1433.884835 886.340633
4508.000000 -1435.884665 886.314548
4508.000000 -1437.884495 886.288463
4508.000000 -1439.884325 886.262378
4508.000000 -1441.884155 886.236294
4508.000000 -1443.883985 886.210209
4508.000000 -1445.883814 886.184124
4508.000000 -1447.883644 886.158039
4508.000000 -1449.883474 886.131955
4508.000000 -1451.883304 886.105870
4508.000000 -1453.883134 886.079785
4508.000000 -1455.882964 886.053700
4508.000000 -1457.882794 886.027616
4508.000000 -1459.882624 886.001531
4508.000000 -1461.882454 885.975446
4508.000000 -1463.882283 885.949362
4508.000000 -1465.882113 885.923277
4508.000000 -1467.881943 885.897192
4508.000000 -1469.881773 885.871107
4508.000000 -1471.881603 885.845023
4508.000000 -1473.881433 885.818938
4508.000000 -1475.881263 885.792853
4508.000000 -1477.881093 885.766768
4508.000000 -1479.880923 885.740684
4508.000000 -1481.880752 885.714599
4508.000000 -1483.880582 885.688514
4508.000000 -1485.880412 885.662429
4508.000000 -1487.880242 885.636345
4508.000000 -1489.880072 885.610260
4508.000000 -1491.879902 885.584175
4508.000000 -1493.879732 885.558090
4508.000000 -1495.879562 885.532006
4508.000000 -1497.879392 885.505921
4508.000000 -1499.879221 885.479836
4508.000000 -1501.879051 885.453752
4508.000000 -1503.878881 885.427667
4508.000000 -1505.878711 885.401582
4508.000000 -1507.878541 885.375497
4508.000000 -1509.878371 885.349413
4508.000000 -1511.878201 885.323328
4508.000000 -1513.878031 885.297243
4508.000000 -1515.877861 885.271158
4508.000000 -1517.877690 885.245074
4508.000000 -1519.877520 885.218989
4508.000000 -1521.877350 885.192904
4508.000000 -1523.877180 885.166819
4508.000000 -1525.877010 885.140735
4508.000000 -1527.876840 885.114650
4508.000000 -1529.876670 885.088565
4508.000000 -1531.876500 885.062480
4508.000000 -1533.876330 885.036396
4508.000000 -1535.876159 885.010311
4508.000000 -1537.875989 884.984226
4508.000000 -1539.875819 884.958141
4508.000000 -1541.875649 884.932057
4508.000000 -1543.875479 884.905972
4508.000000 -1545.875309 884.879887
4508.000000 -1547.875139 884.853803
4508.000000 -1549.874969 884.827718
4508.000000 -1551.874799 884.801633
4508.000000 -1553.874628 884.775548
4508.000000 -1555.874458 884.749464
4508.000000 -1557.874288 884.723379
4508.000000 -1559.874118 884.697294
4508.000000 -1561.873948 884.671209
4508.000000 -1563.873778 884.645125
4508.000000 -1565.873608 884.619040
4508.000000 -1567.873438 884.592955
4508.000000 -1569.873268 884.566870
4508.000000 -1571.873097 884.540786
4508.000000 -1573.872927 884.514701
4508.000000 -1575.872757 884.488616
4508.000000 -1577.872587 884.462531
4508.000000 -1579.872417 884.436447
4508.000000 -1581.872247 884.410362
4508.000000 -1583.872077 884.384277
4508.000000 -1585.871907 884.358193
4508.000000 -1587.871737 884.332108
4508.000000 -1589.871566 884.306023
4508.000000 -1591.871396 884.279938
4508.000000 -1593.871226 884.253854
4508.000000 -1595.871056 884.227769
4508.000000 -1597.870886 884.201684
4508.000000 -1599.870716 884.175599
4508.000000 -1601.870546 884.149515
4508.000000 -1603.870376 884.123430
4508.000000 -1605.870206 884.097345
4508.000000 -1607.870035 884.071260
4508.000000 -1609.869865 884.045176
4508.000000 -1611.869695 884.019091
4508.000000 -1613.869525 883.993006
4508.000000 -1615.869355 883.966921
4508.000000 -1617.869185 883.940837
4508.000000 -1619.869015 883.914752
4508.000000 -1621.868845 883.888667
4508.000000 -1623.868675 883.862583
4508.000000 -1625.868504 883.836498
4508.000000 -1627.868334 883.810413
4508.000000 -1629.868164 883.784328
4508.000000 -1631.867994 883.758244
4508.000000 -1633.867824 883.732159
4508.000000 -1635.867654 883.706074
4508.000000 -1637.867484 883.679989
4508.000000 -1639.867314 883.653905
4508.000000 -1641.867144 883.627820
4508.000000 -1643.866973 883.601735
4508.000000 -1645.866803 883.575650
4508.000000 -1647.866633 883.549566
4508.000000 -1649.866463 883.523481
4508.000000 -1651.866293 883.497396
4508.000000 -1653.866123 883.471311
4508.000000 -1655.865953 883.445227
4508.000000 -1657.865783 883.419142
4508.000000 -1659.865613 883.393057
4508.000000 -1661.865443 883.366972
4508.000000 -1663.865272 883.340888
4508.000000 -1665.865102 883.314803
4508.000000 -1667.864932 883.288718
4508.000000 -1669.864762 883.262634
4508.000000 -1671.864592 883.236549
4508.000000 -1673.864422 883.210464
4508.000000 -1675.864252 883.184379
4508.000000 -1677.864082 883.158295
4508.000000 -1679.863912 883.132210
4508.000000 -1681.863741 883.106125
4508.000000 -1683.863571 883.080040
4508.000000 -1685.863401 883.053956
4508.000000 -1687.863231 883.027871
4508.000000 -1689.863061 883.001786
4508.000000 -1691.862891 882.975701
4508.000000 -1693.862721 882.949617
4508.000000 -1695.862551 882.923532
4508.000000 -1697.862381 882.897447
4508.000000 -1699.862210 882.871362
4508.000000 -1701.862040 882.845278
4508.000000 -1703.861870 882.819193
4508.000000 -1705.861700 882.793108
4508.000000 -1707.861530 882.767024
4508.000000 -1709.861360 882.740939
4508.000000 -1711.861190 882.714854
4508.000000 -1713.861020 882.688769
4508.000000 -1715.860850 882.662685
4508.000000 -1717.860679 882.636600
4508.000000 -1719.860509 882.610515
4508.000000 -1721.860339 882.584430
4508.000000 -1723.860169 882.558346
4508.000000 -1725.859999 882.532261
4508.000000 -1727.859829 882.506176
4508.000000 -1729.859659 882.480091
4508.000000 -1731.859489 882.454007
4508.000000 -1733.859319 882.427922
4508.000000 -1735.859148 882.401837
4508.000000 -1737.858978 882.375752
4508.000000 -1739.858808 882.349668
4508.000000 -1741.858638 882.323583
4508.000000 -1743.858468 882.297498
4508.000000 -1745.858298 882.271414
4508.000000 -1747.858128 882.245329
4508.000000 -1749.857958 882.219244
4508.000000 -1751.857788 882.193159
4508.000000 -1753.857617 882.167075
4508.000000 -1755.857447 882.140990
4508.000000 -1757.857277 882.114905
4508.000000 -1759.857107 882.088820
4508.000000 -1761.856937 882.062736
4508.000000 -1763.856767 882.036651
4508.000000 -1765.856597 882.010566
4508.000000 -1767.856427 881.984481
4508.000000 -1769.856257 881.958397
4508.000000 -1771.856086 881.932312
4508.000000 -1773.855916 881.906227
4508.000000 -1775.855746 881.880142
4508.000000 -1777.855576 881.854058
4508.000000 -1779.855406 881.827973
4508.000000 -1781.855236 881.801888
4508.000000 -1783.855066 881.775803
4508.000000 -1785.854896 881.749719
4508.000000 -1787.854726 881.723634
4508.000000 -1789.854555 881.697549
4508.000000 -1791.854385 881.671465
4508.000000 -1793.854215 881.645380
4508.000000 -1795.854045 881.619295
4508.000000 -1797.853875 881.593210
4508.000000 -1799.853705 881.567126
4508.000000 -1801.853535 881.541041
4508.000000 -1803.853365 881.514956
4508.000000 -1805.853195 881.488871
4508.000000 -1807.853024 881.462787
4508.000000 -1809.852854 881.436702
4508.000000 -1811.852684 881.410617
4508.000000 -1813.852514 881.384532
4508.000000 -1815.852344 881.358448
4508.000000 -1817.852174 881.332363
4508.000000 -1819.852004 881.306278
4508.000000 -1821.851834 881.280193
4508.000000 -1823.851664 881.254109
4508.000000 -1825.851493 881.228024
4508.000000 -1827.851323 881.201939
4508.000000 -1829.851153 881.175855
4508.000000 -1831.850983 881.149770
4508.000000 -1833.850813 881.123685
4508.000000 -1835.850643 881.097600
4508.000000 -1837.850473 881.071516
4508.000000 -1839.850303 881.045431
4508.000000 -1841.850133 881.019346
4508.000000 -1843.849962 880.993261
4508.000000 -1845.849792 880.967177
4508.000000 -1847.849622 880.941092
4508.000000 -1849.849452 880.915007
4508.000000 -1851.849282 880.888922
4508.000000 -1853.849112 880.862838
4508.000000 -1855.848942 880.836753
4508.000000 -1857.848772 880.810668
4508.000000 -1859.848602 880.784583
4508.000000 -1861.848431 880.758499
4508.000000 -1863.848261 880.732414
4508.000000 -1865.848091 880.706329
4508.000000 -1867.847921 880.680245
4508.000000 -1869.847751 880.654160
4508.000000 -1871.847581 880.628075
4508.000000 -1873.847411 880.601990
4508.000000 -1875.847241 880.575906
4508.000000 -1877.847071 880.549821
4508.000000 -1879.846900 880.523736
4508.000000 -1881.846730 880.497651
4508.000000 -1883.846560 880.471567
4508.000000 -1885.846390 880.445482
4508.000000 -1887.846220 880.419397
4508.000000 -1889.846050 880.393312
4508.000000 -1891.845880 880.367228
4508.000000 -1893.845710 880.341143
4508.000000 -1895.845540 880.315058
4508.000000 -1897.845369 880.288973
4508.000000 -1899.845199 880.262889
4508.000000 -1901.845029 880.236804
4508.000000 -1903.844859 880.210719
4508.000000 -1905.844689 880.184634
4508.000000 -1907.844519 880.158550
4508.000000 -1909.844349 880.132465
4508.000000 -1911.844179 880.106380
4508.000000 -1913.844009 880.080296
4508.000000 -1915.843838 880.054211
4508.000000 -1917.843668 880.028126
4508.000000 -1920.000000 880.000000
4506.407150 -1920.484780 881.108069
4504.814301 -1920.969561 882.216139
4503.221451 -1921.454341 883.324208
4501.628601 -1921.939121 884.432278
4500.035751 -1922.423902 885.540347
4498.442902 -1922.908682 886.648416
4496.850052 -1923.393462 887.756486
4495.257202 -1923.878243 888.864555
4493.664352 -1924.363023 889.972624
4492.071503 -1924.847804 891.080694
4490.478653 -1925.332584 892.188763
4488.885803 -1925.817364 893.296833
4487.292954 -1926.302145 894.404902
4485.700104 -1926.786925 895.512971
4484.107254 -1927.271705 896.621041
4482.514404 -1927.756486 897.729110
4480.921555 -1928.241266 898.837179
4479.328705 -1928.726046 899.945249
4477.735855 -1929.210827 901.053318
4476.143005 -1929.695607 902.161388
4474.550156 -1930.180387 903.269457
4472.957306 -1930.665168 904.377526
4471.364456 -1931.149948 905.485596
4469.771606 -1931.634728 906.593665
4468.178757 -1932.119509 907.701734
4466.585907 -1932.604289 908.809804
4464.993057 -1933.089070 909.917873
4463.400208 -1933.573850 911.025943
4461.807358 -1934.058630 912.134012
4460.214508 -1934.543411 913.242081
4458.621658 -1935.028191 914.350151
4457.028809 -1935.512971 915.458220
4455.435959 -1935.997752 916.566289
4453.843109 -1936.482532 917.674359
4452.250259 -1936.967312 918.782428
4450.657410 -1937.452093 919.890498
4449.064560 -1937.936873 920.998567
4447.471710 -1938.421653 922.106636
4445.878861 -1938.906434 923.214706
4444.286011 -1939.391214 924.322775
4442.693161 -1939.875994 925.430844
4441.100311 -1940.360775 926.538914
4439.507462 -1940.845555 927.646983
4437.914612 -1941.330336 928.755053
4436.321762 -1941.815116 929.863122
4434.728912 -1942.299896 930.971191
4433.136063 -1942.784677 932.079261
4431.543213 -1943.269457 933.187330
4429.950363 -1943.754237 934.295400
4428.357513 -1944.239018 935.403469
4426.764664 -1944.723798 936.511538
4425.171814 -1945.208578 937.619608
4423.578964 -1945.693359 938.727677
4421.986115 -1946.178139 939.835746
4420.393265 -1946.662919 940.943816
4418.800415 -1947.147700 942.051885
4416.000000 -1948.000000 944.000000
4414.003352 -1948.000000 943.884252
4412.006704 -1948.000000 943.768505
4410.010057 -1948.000000 943.652757
4408.013409 -1948.000000 943.537009
4406.016761 -1948.000000 943.421262
4404.020113 -1948.000000 943.305514
4402.023465 -1948.000000 943.189766
4400.026818 -1948.000000 943.074018
4398.030170 -1948.000000 942.958271
4396.033522 -1948.000000 942.842523
4394.036874 -1948.000000 942.726775
4392.040226 -1948.000000 942.611028
4390.043578 -1948.000000 942.495280
4388.046931 -1948.000000 942.379532
4386.050283 -1948.000000 942.263785
4384.053635 -1948.000000 942.148037
4382.056987 -1948.000000 942.032289
4380.060339 -1948.000000 941.916541
4378.063692 -1948.000000 941.800794
4376.067044 -1948.000000 941.685046
4374.070396 -1948.000000 941.569298
4372.073748 -1948.000000 941.453551
4370.077100 -1948.000000 941.337803
4368.080453 -1948.000000 941.222055
4366.083805 -1948.000000 941.106308
4364.087157 -1948.000000 940.990560
4362.090509 -1948.000000 940.874812
4360.093861 -1948.000000 940.759064
4358.097214 -1948.000000 940.643317
4356.100566 -1948.000000 940.527569
4354.103918 -1948.000000 940.411821
4352.107270 -1948.000000 940.296074
4350.110622 -1948.000000 940.180326
4348.113975 -1948.000000 940.064578
4346.117327 -1948.000000 939.948831
4344.120679 -1948.000000 939.833083
4342.124031 -1948.000000 939.717335
4340.127383 -1948.000000 939.601587
4338.130735 -1948.000000 939.485840
4336.134088 -1948.000000 939.370092
4334.137440 -1948.000000 939.254344
4332.140792 -1948.000000 939.138597
4330.144144 -1948.000000 939.022849
4328.147496 -1948.000000 938.907101
4326.150849 -1948.000000 938.791354
4324.154201 -1948.000000 938.675606
4322.157553 -1948.000000 938.559858
4320.160905 -1948.000000 938.444110
4318.164257 -1948.000000 938.328363
4316.167610 -1948.000000 938.212615
4314.170962 -1948.000000 938.096867
4312.174314 -1948.000000 937.981120
4310.177666 -1948.000000 937.865372
4308.181018 -1948.000000 937.749624
4306.184371 -1948.000000 937.633877
4304.187723 -1948.000000 937.518129
4302.191075 -1948.000000 937.402381
4300.194427 -1948.000000 937.286633
4298.197779 -1948.000000 937.170886
4296.201132 -1948.000000 937.055138
4294.204484 -1948.000000 936.939390
4292.207836 -1948.000000 936.823643
4290.211188 -1948.000000 936.707895
4288.214540 -1948.000000 936.592147
4286.217892 -1948.000000 936.476400
4284.221245 -1948.000000 936.360652
4282.224597 -1948.000000 936.244904
4280.227949 -1948.000000 936.129156
4278.231301 -1948.000000 936.013409
4276.234653 -1948.000000 935.897661
4274.238006 -1948.000000 935.781913
4272.241358 -1948.000000 935.666166
4270.244710 -1948.000000 935.550418
4268.248062 -1948.000000 935.434670
4266.251414 -1948.000000 935.318923
4264.254767 -1948.000000 935.203175
4262.258119 -1948.000000 935.087427
4260.261471 -1948.000000 934.971679
4258.264823 -1948.000000 934.855932
4256.268175 -1948.000000 934.740184
4254.271528 -1948.000000 934.624436
4252.274880 -1948.000000 934.508689
4250.278232 -1948.000000 934.392941
4248.281584 -1948.000000 934.277193
4246.284936 -1948.000000 934.161446
4244.288288 -1948.000000 934.045698
4242.291641 -1948.000000 933.929950
4240.294993 -1948.000000 933.814202
4238.298345 -1948.000000 933.698455
4236.301697 -1948.000000 933.582707
4234.305049 -1948.000000 933.466959
4232.308402 -1948.000000 933.351212
