432.862967 128.862967 417.796168
432.805870 128.805870 419.794537
432.748774 128.748774 421.792907
432.691678 128.691678 423.791276
432.634582 128.634582 425.789645
432.577485 128.577485 427.788015
432.520389 128.520389 429.786384
432.463293 128.463293 431.784753
432.406196 128.406196 433.783123
432.349100 128.349100 435.781492
432.292004 128.292004 437.779861
432.234908 128.234908 439.778231
432.177811 128.177811 441.776600
432.120715 128.120715 443.774969
432.063619 128.063619 445.773339
432.000000 128.000000 448.000000
432.356688 129.426753 449.355415
432.713376 130.853506 450.710830
433.070065 132.280258 452.066245
433.426753 133.707011 453.421660
433.783441 135.133764 454.777076
434.140129 136.560517 456.132491
434.496817 137.987269 457.487906
434.853506 139.414022 458.843321
435.210194 140.840775 460.198736
435.566882 142.267528 461.554151
435.923570 143.694280 462.909566
436.280258 145.121033 464.264981
436.636946 146.547786 465.620396
436.993635 147.974539 466.975812
437.350323 149.401291 468.331227
437.707011 150.828044 469.686642
438.063699 152.254797 471.042057
438.420387 153.681550 472.397472
438.777076 155.108302 473.752887
439.133764 156.535055 475.108302
439.490452 157.961808 476.463717
439.847140 159.388561 477.819132
440.203828 160.815313 479.174548
440.560517 162.242066 480.529963
440.917205 163.668819 481.885378
441.273893 165.095572 483.240793
441.630581 166.522324 484.596208
441.987269 167.949077 485.951623
442.343957 169.375830 487.307038
442.700646 170.802583 488.662453
443.057334 172.229335 490.017868
443.414022 173.656088 491.373284
443.770710 175.082841 492.728699
444.127398 176.509594 494.084114
444.484087 177.936346 495.439529
444.840775 179.363099 496.794944
445.197463 180.789852 498.150359
445.554151 182.216605 499.505774
445.910839 183.643357 500.861189
446.267528 185.070110 502.216605
446.624216 186.496863 503.572020
446.980904 187.923616 504.927435
447.337592 189.350368 506.282850
447.694280 190.777121 507.638265
448.050968 192.203874 508.993680
448.407657 193.630627 510.349095
448.764345 195.057379 511.704510
449.121033 196.484132 513.059925
449.477721 197.910885 514.415341
449.834409 199.337638 515.770756
450.191098 200.764390 517.126171
450.547786 202.191143 518.481586
450.904474 203.617896 519.837001
451.261162 205.044649 521.192416
451.617850 206.471401 522.547831
451.974539 207.898154 523.903246
452.331227 209.324907 525.258661
452.687915 210.751660 526.614077
453.044603 212.178412 527.969492
453.401291 213.605165 529.324907
453.757979 215.031918 530.680322
454.114668 216.458671 532.035737
454.471356 217.885423 533.391152
454.828044 219.312176 534.746567
455.184732 220.738929 536.101982
455.541420 222.165682 537.457397
455.898109 223.592434 538.812813
456.254797 225.019187 540.168228
456.611485 226.445940 541.523643
456.968173 227.872693 542.879058
457.324861 229.299445 544.234473
457.681550 230.726198 545.589888
458.038238 232.152951 546.945303
458.394926 233.579704 548.300718
458.751614 235.006456 549.656133
459.108302 236.433209 551.011549
459.464990 237.859962 552.366964
459.821679 239.286715 553.722379
460.178367 240.713467 555.077794
460.535055 242.140220 556.433209
460.891743 243.566973 557.788624
461.248431 244.993726 559.144039
461.605120 246.420478 560.499454
461.961808 247.847231 561.854869
462.318496 249.273984 563.210285
462.675184 250.700737 564.565700
463.031872 252.127489 565.921115
463.388561 253.554242 567.276530
463.745249 254.980995 568.631945
464.101937 256.407748 569.987360
464.458625 257.834500 571.342775
464.815313 259.261253 572.698190
465.172001 260.688006 574.053605
465.528690 262.114759 575.409021
465.885378 263.541511 576.764436
466.242066 264.968264 578.119851
466.598754 266.395017 579.475266
466.955442 267.821770 580.830681
467.312131 269.248522 582.186096
467.668819 270.675275 583.541511
468.025507 272.102028 584.896926
468.382195 273.528781 586.252341
468.738883 274.955533 587.607757
469.095572 276.382286 588.963172
469.452260 277.809039 590.318587
469.808948 279.235792 591.674002
470.165636 280.662544 593.029417
470.522324 282.089297 594.384832
470.879012 283.516050 595.740247
471.235701 284.942803 597.095662
471.592389 286.369555 598.451077
471.949077 287.796308 599.806493
472.305765 289.223061 601.161908
472.662453 290.649814 602.517323
473.019142 292.076566 603.872738
473.375830 293.503319 605.228153
473.732518 294.930072 606.583568
474.089206 296.356825 607.938983
474.445894 297.783577 609.294398
474.802583 299.210330 610.649814
475.159271 300.637083 612.005229
475.515959 302.063836 613.360644
475.872647 303.490588 614.716059
476.229335 304.917341 616.071474
476.586023 306.344094 617.426889
476.942712 307.770847 618.782304
477.299400 309.197599 620.137719
477.656088 310.624352 621.493134
478.012776 312.051105 622.848550
478.369464 313.477858 624.203965
478.726153 314.904610 625.559380
479.082841 316.331363 626.914795
479.439529 317.758116 628.270210
479.796217 319.184869 629.625625
480.152905 320.611621 630.981040
480.509594 322.038374 632.336455
480.866282 323.465127 633.691870
481.222970 324.891880 635.047286
481.579658 326.318632 636.402701
481.936346 327.745385 637.758116
482.293034 329.172138 639.113531
482.649723 330.598891 640.468946
483.006411 332.025643 641.824361
483.363099 333.452396 643.179776
483.719787 334.879149 644.535191
484.076475 336.305902 645.890606
484.433164 337.732654 647.246022
484.789852 339.159407 648.601437
485.146540 340.586160 649.956852
485.503228 342.012913 651.312267
485.859916 343.439665 652.667682
486.216605 344.866418 654.023097
486.573293 346.293171 655.378512
486.929981 347.719924 656.733927
487.286669 349.146676 658.089342
487.643357 350.573429 659.444758
488.000045 352.000182 660.800173
488.356734 353.426935 662.155588
488.713422 354.853687 663.511003
489.070110 356.280440 664.866418
489.426798 357.707193 666.221833
489.783486 359.133946 667.577248
490.140175 360.560698 668.932663
490.496863 361.987451 670.288078
490.853551 363.414204 671.643494
491.210239 364.840957 672.998909
491.566927 366.267709 674.354324
491.923616 367.694462 675.709739
492.280304 369.121215 677.065154
492.636992 370.547968 678.420569
492.993680 371.974720 679.775984
493.350368 373.401473 681.131399
493.707056 374.828226 682.486814
494.063745 376.254979 683.842230
494.420433 377.681731 685.197645
494.777121 379.108484 686.553060
495.133809 380.535237 687.908475
495.490497 381.961990 689.263890
495.847186 383.388742 690.619305
496.203874 384.815495 691.974720
496.560562 386.242248 693.330135
496.917250 387.669001 694.685550
497.273938 389.095753 696.040966
497.630627 390.522506 697.396381
497.987315 391.949259 698.751796
498.344003 393.376012 700.107211
498.700691 394.802764 701.462626
499.057379 396.229517 702.818041
499.414067 397.656270 704.173456
499.770756 399.083023 705.528871
500.127444 400.509775 706.884286
500.484132 401.936528 708.239702
500.840820 403.363281 709.595117
501.197508 404.790034 710.950532
501.554197 406.216786 712.305947
501.910885 407.643539 713.661362
502.267573 409.070292 715.016777
502.624261 410.497045 716.372192
502.980949 411.923797 717.727607
503.337638 413.350550 719.083023
503.694326 414.777303 720.438438
504.051014 416.204056 721.793853
504.407702 417.630808 723.149268
504.764390 419.057561 724.504683
505.121078 420.484314 725.860098
505.477767 421.911067 727.215513
505.834455 423.337819 728.570928
506.191143 424.764572 729.926343
506.547831 426.191325 731.281759
506.904519 427.618078 732.637174
507.261208 429.044830 733.992589
507.617896 430.471583 735.348004
507.974584 431.898336 736.703419
508.331272 433.325089 738.058834
508.687960 434.751841 739.414249
509.044649 436.178594 740.769664
509.401337 437.605347 742.125079
509.758025 439.032100 743.480495
510.114713 440.458852 744.835910
510.471401 441.885605 746.191325
510.828089 443.312358 747.546740
511.184778 444.739111 748.902155
511.541466 446.165863 750.257570
511.898154 447.592616 751.612985
512.254842 449.019369 752.968400
512.611530 450.446122 754.323815
512.968219 451.872874 755.679231
513.324907 453.299627 757.034646
513.681595 454.726380 758.390061
514.038283 456.153133 759.745476
514.394971 457.579885 761.100891
514.751660 459.006638 762.456306
515.108348 460.433391 763.811721
515.465036 461.860144 765.167136
515.821724 463.286896 766.522551
516.178412 464.713649 767.877967
516.535100 466.140402 769.233382
516.891789 467.567155 770.588797
517.248477 468.993907 771.944212
517.605165 470.420660 773.299627
517.961853 471.847413 774.655042
518.318541 473.274166 776.010457
518.675230 474.700918 777.365872
519.031918 476.127671 778.721287
519.388606 477.554424 780.076703
519.745294 478.981177 781.432118
520.101982 480.407929 782.787533
520.458671 481.834682 784.142948
520.815359 483.261435 785.498363
521.172047 484.688188 786.853778
521.528735 486.114940 788.209193
521.885423 487.541693 789.564608
522.242111 488.968446 790.920023
522.598800 490.395199 792.275439
522.955488 491.821951 793.630854
523.312176 493.248704 794.986269
523.668864 494.675457 796.341684
524.025552 496.102210 797.697099
524.382241 497.528962 799.052514
524.738929 498.955715 800.407929
525.095617 500.382468 801.763344
525.452305 501.809221 803.118759
525.808993 503.235973 804.474175
526.165682 504.662726 805.829590
526.522370 506.089479 807.185005
526.879058 507.516232 808.540420
527.235746 508.942984 809.895835
527.592434 510.369737 811.251250
527.949122 511.796490 812.606665
528.305811 513.223243 813.962080
528.662499 514.649995 815.317495
529.019187 516.076748 816.672911
529.375875 517.503501 818.028326
529.732563 518.930254 819.383741
530.089252 520.357006 820.739156
530.445940 521.783759 822.094571
530.802628 523.210512 823.449986
531.159316 524.637265 824.805401
531.516004 526.064017 826.160816
531.872693 527.490770 827.516232
532.229381 528.917523 828.871647
532.586069 530.344276 830.227062
532.942757 531.771028 831.582477
533.299445 533.197781 832.937892
533.656133 534.624534 834.293307
534.012822 536.051287 835.648722
534.369510 537.478039 837.004137
534.726198 538.904792 838.359552
535.082886 540.331545 839.714968
535.439574 541.758298 841.070383
535.796263 543.185050 842.425798
536.152951 544.611803 843.781213
536.509639 546.038556 845.136628
536.866327 547.465309 846.492043
537.223015 548.892061 847.847458
537.579704 550.318814 849.202873
537.936392 551.745567 850.558288
538.293080 553.172320 851.913704
538.649768 554.599072 853.269119
539.006456 556.025825 854.624534
539.363144 557.452578 855.979949
539.719833 558.879331 857.335364
540.076521 560.306083 858.690779
540.433209 561.732836 860.046194
540.789897 563.159589 861.401609
541.146585 564.586342 862.757024
541.503274 566.013094 864.112440
541.859962 567.439847 865.467855
542.216650 568.866600 866.823270
542.573338 570.293353 868.178685
542.930026 571.720105 869.534100
543.286715 573.146858 870.889515
543.643403 574.573611 872.244930
544.000091 576.000364 873.600345
544.356779 577.427116 874.955760
544.713467 578.853869 876.311176
545.070155 580.280622 877.666591
545.426844 581.707375 879.022006
545.783532 583.134127 880.377421
546.140220 584.560880 881.732836
546.496908 585.987633 883.088251
546.853596 587.414386 884.443666
547.210285 588.841138 885.799081
547.566973 590.267891 887.154496
547.923661 591.694644 888.509912
548.280349 593.121397 889.865327
548.637037 594.548149 891.220742
548.993726 595.974902 892.576157
549.350414 597.401655 893.931572
549.707102 598.828408 895.286987
550.063790 600.255160 896.642402
550.420478 601.681913 897.997817
550.777166 603.108666 899.353232
551.133855 604.535419 900.708648
551.490543 605.962171 902.064063
552.000000 608.000000 904.000000
552.000000 608.857848 902.193319
552.000000 609.715697 900.386638
552.000000 610.573545 898.579957
552.000000 611.431394 896.773276
552.000000 612.289242 894.966595
552.000000 613.147091 893.159914
552.000000 614.004939 891.353234
552.000000 614.862788 889.546553
552.000000 615.720636 887.739872
552.000000 616.578485 885.933191
552.000000 617.436333 884.126510
552.000000 618.294182 882.319829
552.000000 619.152030 880.513148
552.000000 620.009879 878.706467
552.000000 620.867727 876.899786
552.000000 621.725576 875.093105
552.000000 622.583424 873.286424
552.000000 623.441273 871.479743
552.000000 624.299121 869.673062
552.000000 625.156970 867.866382
552.000000 626.014818 866.059701
552.000000 626.872667 864.253020
552.000000 627.730515 862.446339
552.000000 628.588364 860.639658
552.000000 629.446212 858.832977
552.000000 630.304061 857.026296
552.000000 631.161909 855.219615
552.000000 632.019758 853.412934
552.000000 632.877606 851.606253
552.000000 633.735455 849.799572
552.000000 634.593303 847.992891
552.000000 635.451152 846.186210
552.000000 636.309000 844.379530
552.000000 637.166849 842.572849
552.000000 638.024697 840.766168
552.000000 638.882546 838.959487
552.000000 639.740394 837.152806
552.000000 640.598243 835.346125
552.000000 641.456091 833.539444
552.000000 642.313940 831.732763
552.000000 643.171788 829.926082
552.000000 644.029637 828.119401
552.000000 644.887485 826.312720
552.000000 645.745334 824.506039
552.000000 646.603182 822.699358
552.000000 647.461031 820.892678
552.000000 648.318879 819.085997
552.000000 649.176728 817.279316
552.000000 650.034576 815.472635
552.000000 650.892425 813.665954
552.000000 651.750273 811.859273
552.000000 652.608122 810.052592
552.000000 653.465970 808.245911
552.000000 654.323819 806.439230
552.000000 655.181667 804.632549
552.000000 656.039516 802.825868
552.000000 656.897364 801.019187
552.000000 657.755213 799.212506
552.000000 658.613061 797.405826
552.000000 659.470910 795.599145
552.000000 660.328758 793.792464
552.000000 661.186607 791.985783
552.000000 662.044455 790.179102
552.000000 662.902304 788.372421
552.000000 663.760152 786.565740
552.000000 664.618001 784.759059
552.000000 665.475849 782.952378
552.000000 666.333698 781.145697
552.000000 667.191546 779.339016
552.000000 668.049395 777.532335
552.000000 668.907243 775.725654
552.000000 669.765092 773.918974
552.000000 670.622940 772.112293
552.000000 671.480789 770.305612
552.000000 672.338637 768.498931
552.000000 673.196486 766.692250
552.000000 674.054334 764.885569
552.000000 674.912183 763.078888
552.000000 675.770031 761.272207
552.000000 676.627880 759.465526
552.000000 677.485728 757.658845
552.000000 678.343577 755.852164
552.000000 679.201425 754.045483
552.000000 680.059274 752.238802
552.000000 680.917122 750.432122
552.000000 681.774971 748.625441
552.000000 682.632819 746.818760
552.000000 683.490668 745.012079
552.000000 684.348516 743.205398
552.000000 685.206365 741.398717
552.000000 686.064213 739.592036
552.000000 686.922062 737.785355
552.000000 687.779910 735.978674
552.000000 688.637759 734.171993
552.000000 689.495607 732.365312
552.000000 690.353456 730.558631
552.000000 691.211304 728.751950
552.000000 692.069153 726.945270
552.000000 692.927001 725.138589
552.000000 693.784850 723.331908
552.000000 694.642698 721.525227
552.000000 695.500547 719.718546
552.000000 696.358395 717.911865
552.000000 697.216244 716.105184
552.000000 698.074092 714.298503
552.000000 698.931941 712.491822
552.000000 699.789789 710.685141
552.000000 700.647638 708.878460
552.000000 701.505486 707.071779
552.000000 702.363335 705.265098
552.000000 703.221183 703.458418
552.000000 704.079032 701.651737
552.000000 704.936880 699.845056
552.000000 705.794729 698.038375
552.000000 706.652577 696.231694
552.000000 707.510426 694.425013
552.000000 708.368274 692.618332
552.000000 709.226123 690.811651
552.000000 710.083971 689.004970
552.000000 710.941820 687.198289
552.000000 711.799668 685.391608
552.000000 712.657516 683.584927
552.000000 713.515365 681.778246
552.000000 714.373213 679.971566
552.000000 715.231062 678.164885
552.000000 716.088910 676.358204
552.000000 716.946759 674.551523
552.000000 717.804607 672.744842
552.000000 718.662456 670.938161
552.000000 719.520304 669.131480
552.000000 720.378153 667.324799
552.000000 721.236001 665.518118
552.000000 722.093850 663.711437
552.000000 722.951698 661.904756
552.000000 723.809547 660.098075
552.000000 724.667395 658.291394
552.000000 725.525244 656.484714
552.000000 726.383092 654.678033
552.000000 727.240941 652.871352
552.000000 728.098789 651.064671
552.000000 728.956638 649.257990
552.000000 729.814486 647.451309
552.000000 730.672335 645.644628
552.000000 731.530183 643.837947
552.000000 732.388032 642.031266
552.000000 733.245880 640.224585
552.000000 734.103729 638.417904
552.000000 734.961577 636.611223
552.000000 735.819426 634.804542
552.000000 736.677274 632.997862
552.000000 737.535123 631.191181
552.000000 738.392971 629.384500
552.000000 739.250820 627.577819
552.000000 740.108668 625.771138
552.000000 740.966517 623.964457
552.000000 741.824365 622.157776
552.000000 742.682214 620.351095
552.000000 743.540062 618.544414
552.000000 744.397911 616.737733
552.000000 745.255759 614.931052
552.000000 746.113608 613.124371
552.000000 746.971456 611.317690
552.000000 747.829305 609.511010
552.000000 748.687153 607.704329
552.000000 749.545002 605.897648
552.000000 750.402850 604.090967
552.000000 751.260699 602.284286
552.000000 752.118547 600.477605
552.000000 752.976396 598.670924
552.000000 753.834244 596.864243
552.000000 754.692093 595.057562
552.000000 755.549941 593.250881
552.000000 756.407790 591.444200
552.000000 757.265638 589.637519
552.000000 758.123487 587.830838
552.000000 758.981335 586.024158
552.000000 759.839184 584.217477
552.000000 760.697032 582.410796
552.000000 761.554881 580.604115
552.000000 762.412729 578.797434
552.000000 763.270578 576.990753
552.000000 764.128426 575.184072
552.000000 764.986275 573.377391
552.000000 765.844123 571.570710
552.000000 766.701972 569.764029
552.000000 767.559820 567.957348
552.000000 768.417669 566.150667
552.000000 769.275517 564.343986
552.000000 770.133366 562.537306
552.000000 770.991214 560.730625
552.000000 771.849063 558.923944
552.000000 772.706911 557.117263
552.000000 773.564760 555.310582
552.000000 774.422608 553.503901
552.000000 775.280457 551.697220
552.000000 776.138305 549.890539
552.000000 776.996154 548.083858
552.000000 777.854002 546.277177
552.000000 778.711851 544.470496
552.000000 779.569699 542.663815
552.000000 780.427548 540.857134
552.000000 781.285396 539.050454
552.000000 782.143245 537.243773
552.000000 783.001093 535.437092
552.000000 783.858942 533.630411
552.000000 784.716790 531.823730
552.000000 785.574639 530.017049
552.000000 786.432487 528.210368
552.000000 787.290336 526.403687
552.000000 788.148184 524.597006
552.000000 789.006033 522.790325
552.000000 789.863881 520.983644
552.000000 790.721730 519.176963
552.000000 791.579578 517.370282
552.000000 792.437427 515.563602
552.000000 793.295275 513.756921
552.000000 794.153124 511.950240
552.000000 795.010972 510.143559
552.000000 795.868821 508.336878
552.000000 796.726669 506.530197
552.000000 797.584518 504.723516
552.000000 798.442366 502.916835
552.000000 799.300215 501.110154
552.000000 800.158063 499.303473
552.000000 801.015912 497.496792
552.000000 801.873760 495.690111
552.000000 802.731609 493.883430
552.000000 803.589457 492.076750
552.000000 804.447306 490.270069
552.000000 805.305154 488.463388
552.000000 806.163003 486.656707
552.000000 807.020851 484.850026
552.000000 807.878700 483.043345
552.000000 808.736548 481.236664
552.000000 809.594397 479.429983
552.000000 810.452245 477.623302
552.000000 811.310094 475.816621
552.000000 812.167942 474.009940
552.000000 813.025791 472.203259
552.000000 813.883639 470.396578
552.000000 814.741488 468.589898
552.000000 815.599336 466.783217
552.000000 816.457185 464.976536
552.000000 817.315033 463.169855
552.000000 818.172881 461.363174
552.000000 819.030730 459.556493
552.000000 819.888578 457.749812
552.000000 820.746427 455.943131
552.000000 821.604275 454.136450
552.000000 822.462124 452.329769
552.000000 823.319972 450.523088
552.000000 824.177821 448.716407
552.000000 825.035669 446.909726
552.000000 825.893518 445.103046
552.000000 826.751366 443.296365
552.000000 827.609215 441.489684
552.000000 828.467063 439.683003
552.000000 829.324912 437.876322
552.000000 830.182760 436.069641
552.000000 831.040609 434.262960
552.000000 831.898457 432.456279
552.000000 832.756306 430.649598
552.000000 833.614154 428.842917
552.000000 834.472003 427.036236
552.000000 835.329851 425.229555
552.000000 836.187700 423.422874
552.000000 837.045548 421.616194
552.000000 837.903397 419.809513
552.000000 838.761245 418.002832
552.000000 839.619094 416.196151
552.000000 840.476942 414.389470
552.000000 841.334791 412.582789
552.000000 842.192639 410.776108
552.000000 843.050488 408.969427
552.000000 843.908336 407.162746
552.000000 844.766185 405.356065
552.000000 845.624033 403.549384
552.000000 846.481882 401.742703
552.000000 847.339730 399.936022
552.000000 848.197579 398.129342
552.000000 849.055427 396.322661
552.000000 849.913276 394.515980
552.000000 850.771124 392.709299
552.000000 851.628973 390.902618
552.000000 852.486821 389.095937
552.000000 853.344670 387.289256
552.000000 854.202518 385.482575
552.000000 855.060367 383.675894
552.000000 855.918215 381.869213
552.000000 856.776064 380.062532
552.000000 857.633912 378.255851
552.000000 858.491761 376.449170
552.000000 859.349609 374.642490
552.000000 860.207458 372.835809
552.000000 861.065306 371.029128
552.000000 861.923155 369.222447
552.000000 862.781003 367.415766
552.000000 863.638852 365.609085
552.000000 864.496700 363.802404
552.000000 865.354549 361.995723
552.000000 866.212397 360.189042
552.000000 867.070246 358.382361
552.000000 867.928094 356.575680
552.000000 868.785943 354.768999
552.000000 869.643791 352.962318
552.000000 870.501640 351.155638
552.000000 871.359488 349.348957
552.000000 872.217337 347.542276
552.000000 873.075185 345.735595
552.000000 873.933034 343.928914
552.000000 874.790882 342.122233
552.000000 875.648731 340.315552
552.000000 876.506579 338.508871
552.000000 877.364428 336.702190
552.000000 878.222276 334.895509
552.000000 879.080125 333.088828
552.000000 879.937973 331.282147
552.000000 880.795822 329.475466
552.000000 881.653670 327.668786
552.000000 882.511519 325.862105
552.000000 883.369367 324.055424
552.000000 884.227216 322.248743
552.000000 885.085064 320.442062
552.000000 885.942913 318.635381
552.000000 886.800761 316.828700
552.000000 887.658610 315.022019
552.000000 888.516458 313.215338
552.000000 889.374307 311.408657
552.000000 890.232155 309.601976
552.000000 891.090004 307.795295
552.000000 891.947852 305.988614
552.000000 892.805701 304.181934
552.000000 893.663549 302.375253
552.000000 894.521398 300.568572
552.000000 895.379246 298.761891
552.000000 896.237095 296.955210
552.000000 897.094943 295.148529
552.000000 897.952792 293.341848
552.000000 898.810640 291.535167
552.000000 899.668489 289.728486
552.000000 900.526337 287.921805
552.000000 901.384186 286.115124
552.000000 902.242034 284.308443
552.000000 903.099883 282.501762
552.000000 903.957731 280.695082
552.000000 904.815580 278.888401
552.000000 905.673428 277.081720
552.000000 906.531277 275.275039
552.000000 907.389125 273.468358
552.000000 908.246974 271.661677
552.000000 909.104822 269.854996
552.000000 909.962671 268.048315
552.000000 910.820519 266.241634
552.000000 911.678368 264.434953
552.000000 912.536216 262.628272
552.000000 913.394065 260.821591
552.000000 914.251913 259.014910
552.000000 915.109762 257.208230
552.000000 915.967610 255.401549
552.000000 916.825459 253.594868
552.000000 917.683307 251.788187
552.000000 918.541156 249.981506
552.000000 919.399004 248.174825
552.000000 920.256853 246.368144
552.000000 921.114701 244.561463
552.000000 921.972549 242.754782
552.000000 922.830398 240.948101
552.000000 923.688246 239.141420
552.000000 924.546095 237.334739
552.000000 925.403943 235.528058
552.000000 926.261792 233.721378
552.000000 927.119640 231.914697
552.000000 927.977489 230.108016
552.000000 928.835337 228.301335
552.000000 929.693186 226.494654
552.000000 930.551034 224.687973
552.000000 931.408883 222.881292
552.000000 932.266731 221.074611
552.000000 933.124580 219.267930
552.000000 933.982428 217.461249
552.000000 934.840277 215.654568
552.000000 935.698125 213.847887
552.000000 936.555974 212.041206
552.000000 937.413822 210.234526
552.000000 938.271671 208.427845
552.000000 939.129519 206.621164
552.000000 939.987368 204.814483
552.000000 940.845216 203.007802
552.000000 941.703065 201.201121
552.000000 942.560913 199.394440
552.000000 943.418762 197.587759
552.000000 944.276610 195.781078
552.000000 945.134459 193.974397
552.000000 945.992307 192.167716
552.000000 946.850156 190.361035
552.000000 947.708004 188.554354
552.000000 948.565853 186.747674
552.000000 949.423701 184.940993
552.000000 950.281550 183.134312
552.000000 951.139398 181.327631
552.000000 951.997247 179.520950
552.000000 952.855095 177.714269
552.000000 953.712944 175.907588
552.000000 954.570792 174.100907
552.000000 955.428641 172.294226
552.000000 956.286489 170.487545
552.000000 957.144338 168.680864
552.000000 958.002186 166.874183
552.000000 958.860035 165.067502
552.000000 959.717883 163.260822
552.000000 960.575732 161.454141
552.000000 961.433580 159.647460
552.000000 962.291429 157.840779
552.000000 963.149277 156.034098
552.000000 964.007126 154.227417
552.000000 964.864974 152.420736
552.000000 965.722823 150.614055
552.000000 966.580671 148.807374
552.000000 967.438520 147.000693
552.000000 968.296368 145.194012
552.000000 969.154217 143.387331
552.000000 970.012065 141.580650
552.000000 970.869914 139.773970
552.000000 971.727762 137.967289
552.000000 972.585611 136.160608
552.000000 973.443459 134.353927
552.000000 974.301308 132.547246
552.000000 975.159156 130.740565
552.000000 976.017005 128.933884
552.000000 976.874853 127.127203
552.000000 977.732702 125.320522
552.000000 978.590550 123.513841
552.000000 979.448399 121.707160
552.000000 980.306247 119.900479
552.000000 981.164096 118.093798
552.000000 982.021944 116.287118
552.000000 982.879793 114.480437
552.000000 983.737641 112.673756
552.000000 984.595490 110.867075
552.000000 985.453338 109.060394
552.000000 986.311187 107.253713
552.000000 987.169035 105.447032
552.000000 988.026884 103.640351
552.000000 988.884732 101.833670
552.000000 989.742581 100.026989
552.000000 990.600429 98.220308
552.000000 991.458278 96.413627
552.000000 992.316126 94.606946
552.000000 993.173975 92.800266
552.000000 994.031823 90.993585
552.000000 994.889672 89.186904
552.000000 995.747520 87.380223
552.000000 996.605369 85.573542
552.000000 997.463217 83.766861
552.000000 998.321066 81.960180
552.000000 999.178914 80.153499
552.000000 1000.036763 78.346818
552.000000 1000.894611 76.540137
552.000000 1001.752460 74.733456
552.000000 1002.610308 72.926775
552.000000 1003.468157 71.120094
552.000000 1004.326005 69.313414
552.000000 1005.183854 67.506733
552.000000 1006.041702 65.700052
552.000000 1006.899551 63.893371
552.000000 1007.757399 62.086690
552.000000 1008.615248 60.280009
552.000000 1009.473096 58.473328
552.000000 1010.330945 56.666647
552.000000 1011.188793 54.859966
552.000000 1012.046642 53.053285
552.000000 1012.904490 51.246604
552.000000 1013.762339 49.439923
552.000000 1014.620187 47.633242
552.000000 1015.478036 45.826561
552.000000 1016.335884 44.019881
552.000000 1017.193733 42.213200
552.000000 1018.051581 40.406519
552.000000 1018.909430 38.599838
552.000000 1019.767278 36.793157
552.000000 1020.625127 34.986476
552.000000 1021.482975 33.179795
552.000000 1022.340824 31.373114
552.000000 1023.198672 29.566433
552.000000 1024.056521 27.759752
552.000000 1024.914369 25.953071
552.000000 1025.772217 24.146390
552.000000 1026.630066 22.339709
552.000000 1027.487914 20.533029
552.000000 1028.345763 18.726348
552.000000 1029.203611 16.919667
552.000000 1030.061460 15.112986
552.000000 1030.919308 13.306305
552.000000 1031.777157 11.499624
552.000000 1032.635005 9.692943
552.000000 1033.492854 7.886262
552.000000 1034.350702 6.079581
552.000000 1035.208551 4.272900
552.000000 1036.066399 2.466219
552.000000 1036.924248 0.659538
552.000000 1037.782096 -1.147143
552.000000 1038.639945 -2.953823
552.000000 1039.497793 -4.760504
552.000000 1040.355642 -6.567185
552.000000 1041.213490 -8.373866
552.000000 1042.071339 -10.180547
552.000000 1042.929187 -11.987228
552.000000 1043.787036 -13.793909
552.000000 1044.644884 -15.600590
552.000000 1045.502733 -17.407271
552.000000 1046.360581 -19.213952
552.000000 1047.218430 -21.020633
552.000000 1048.076278 -22.827314
552.000000 1048.934127 -24.633995
552.000000 1049.791975 -26.440675
552.000000 1050.649824 -28.247356
552.000000 1051.507672 -30.054037
552.000000 1052.365521 -31.860718
552.000000 1053.223369 -33.667399
552.000000 1054.081218 -35.474080
552.000000 1054.939066 -37.280761
552.000000 1055.796915 -39.087442
552.000000 1056.654763 -40.894123
552.000000 1057.512612 -42.700804
552.000000 1058.370460 -44.507485
552.000000 1059.228309 -46.314166
552.000000 1060.086157 -48.120847
552.000000 1060.944006 -49.927527
552.000000 1061.801854 -51.734208
552.000000 1062.659703 -53.540889
552.000000 1063.517551 -55.347570
552.000000 1064.375400 -57.154251
552.000000 1065.233248 -58.960932
552.000000 1066.091097 -60.767613
552.000000 1066.948945 -62.574294
552.000000 1067.806794 -64.380975
552.000000 1068.664642 -66.187656
552.000000 1069.522491 -67.994337
552.000000 1070.380339 -69.801018
552.000000 1071.238188 -71.607699
552.000000 1072.096036 -73.414379
552.000000 1072.953885 -75.221060
552.000000 1073.811733 -77.027741
552.000000 1074.669582 -78.834422
552.000000 1075.527430 -80.641103
552.000000 1076.385279 -82.447784
552.000000 1077.243127 -84.254465
552.000000 1078.100976 -86.061146
552.000000 1078.958824 -87.867827
552.000000 1079.816673 -89.674508
552.000000 1080.674521 -91.481189
552.000000 1081.532370 -93.287870
552.000000 1082.390218 -95.094551
552.000000 1083.248067 -96.901231
552.000000 1084.105915 -98.707912
552.000000 1084.963764 -100.514593
552.000000 1085.821612 -102.321274
552.000000 1086.679461 -104.127955
552.000000 1087.537309 -105.934636
552.000000 1088.395158 -107.741317
552.000000 1089.253006 -109.547998
552.000000 1090.110855 -111.354679
552.000000 1090.968703 -113.161360
552.000000 1091.826552 -114.968041
552.000000 1092.684400 -116.774722
552.000000 1093.542249 -118.581403
552.000000 1094.400097 -120.388083
552.000000 1095.257946 -122.194764
552.000000 1096.115794 -124.001445
552.000000 1096.973643 -125.808126
552.000000 1097.831491 -127.614807
552.000000 1098.689340 -129.421488
552.000000 1099.547188 -131.228169
552.000000 1100.405037 -133.034850
552.000000 1101.262885 -134.841531
552.000000 1102.120734 -136.648212
552.000000 1102.978582 -138.454893
552.000000 1103.836431 -140.261574
552.000000 1104.694279 -142.068255
552.000000 1105.552128 -143.874935
552.000000 1106.409976 -145.681616
552.000000 1107.267825 -147.488297
552.000000 1108.125673 -149.294978
552.000000 1108.983522 -151.101659
552.000000 1109.841370 -152.908340
552.000000 1110.699219 -154.715021
552.000000 1111.557067 -156.521702
552.000000 1112.414916 -158.328383
552.000000 1113.272764 -160.135064
552.000000 1114.130613 -161.941745
552.000000 1114.988461 -163.748426
552.000000 1115.846310 -165.555107
552.000000 1116.704158 -167.361787
552.000000 1117.562007 -169.168468
552.000000 1118.419855 -170.975149
552.000000 1119.277704 -172.781830
552.000000 1120.135552 -174.588511
552.000000 1120.993401 -176.395192
552.000000 1121.851249 -178.201873
552.000000 1122.709098 -180.008554
552.000000 1123.566946 -181.815235
552.000000 1124.424795 -183.621916
552.000000 1125.282643 -185.428597
552.000000 1126.140492 -187.235278
552.000000 1126.998340 -189.041959
552.000000 1127.856189 -190.848639
552.000000 1128.714037 -192.655320
552.000000 1129.571885 -194.462001
552.000000 1130.429734 -196.268682
552.000000 1131.287582 -198.075363
552.000000 1132.145431 -199.882044
552.000000 1133.003279 -201.688725
552.000000 1133.861128 -203.495406
552.000000 1134.718976 -205.302087
552.000000 1136.000000 -208.000000
550.000000 1136.000000 -208.000000
548.000000 1136.000000 -208.000000
546.000000 1136.000000 -208.000000
544.000000 1136.000000 -208.000000
542.000000 1136.000000 -208.000000
540.000000 1136.000000 -208.000000
538.000000 1136.000000 -208.000000
536.000000 1136.000000 -208.000000
534.000000 1136.000000 -208.000000
532.000000 1136.000000 -208.000000
530.000000 1136.000000 -208.000000
528.000000 1136.000000 -208.000000
526.000000 1136.000000 -208.000000
524.000000 1136.000000 -208.000000
522.000000 1136.000000 -208.000000
520.000000 1136.000000 -208.000000
518.000000 1136.000000 -208.000000
516.000000 1136.000000 -208.000000
514.000000 1136.000000 -208.000000
512.000000 1136.000000 -208.000000
510.000000 1136.000000 -208.000000
508.000000 1136.000000 -208.000000
506.000000 1136.000000 -208.000000
504.000000 1136.000000 -208.000000
502.000000 1136.000000 -208.000000
500.000000 1136.000000 -208.000000
498.000000 1136.000000 -208.000000
496.000000 1136.000000 -208.000000
494.000000 1136.000000 -208.000000
492.000000 1136.000000 -208.000000
490.000000 1136.000000 -208.000000
488.000000 1136.000000 -208.000000
486.000000 1136.000000 -208.000000
484.000000 1136.000000 -208.000000
482.000000 1136.000000 -208.000000
480.000000 1136.000000 -208.000000
478.000000 1136.000000 -208.000000
476.000000 1136.000000 -208.000000
474.000000 1136.000000 -208.000000
472.000000 1136.000000 -208.000000
470.000000 1136.000000 -208.000000
468.000000 1136.000000 -208.000000
466.000000 1136.000000 -208.000000
464.000000 1136.000000 -208.000000
462.000000 1136.000000 -208.000000
460.000000 1136.000000 -208.000000
458.000000 1136.000000 -208.000000
456.000000 1136.000000 -208.000000
454.000000 1136.000000 -208.000000
452.000000 1136.000000 -208.000000
450.000000 1136.000000 -208.000000
448.000000 1136.000000 -208.000000
446.000000 1136.000000 -208.000000
444.000000 1136.000000 -208.000000
442.000000 1136.000000 -208.000000
440.000000 1136.000000 -208.000000
438.000000 1136.000000 -208.000000
436.000000 1136.000000 -208.000000
434.000000 1136.000000 -208.000000
432.000000 1136.000000 -208.000000
430.000000 1136.000000 -208.000000
428.000000 1136.000000 -208.000000
426.000000 1136.000000 -208.000000
424.000000 1136.000000 -208.000000
422.000000 1136.000000 -208.000000
420.000000 1136.000000 -208.000000
418.000000 1136.000000 -208.000000
416.000000 1136.000000 -208.000000
414.000000 1136.000000 -208.000000
412.000000 1136.000000 -208.000000
410.000000 1136.000000 -208.000000
408.000000 1136.000000 -208.000000
406.000000 1136.000000 -208.000000
404.000000 1136.000000 -208.000000
402.000000 1136.000000 -208.000000
400.000000 1136.000000 -208.000000
398.000000 1136.000000 -208.000000
396.000000 1136.000000 -208.000000
394.000000 1136.000000 -208.000000
392.000000 1136.000000 -208.000000
390.000000 1136.000000 -208.000000
388.000000 1136.000000 -208.000000
386.000000 1136.000000 -208.000000
384.000000 1136.000000 -208.000000
382.000000 1136.000000 -208.000000
380.000000 1136.000000 -208.000000
378.000000 1136.000000 -208.000000
376.000000 1136.000000 -208.000000
374.000000 1136.000000 -208.000000
372.000000 1136.000000 -208.000000
370.000000 1136.000000 -208.000000
368.000000 1136.000000 -208.000000
366.000000 1136.000000 -208.000000
364.000000 1136.000000 -208.000000
362.000000 1136.000000 -208.000000
360.000000 1136.000000 -208.000000
358.000000 1136.000000 -208.000000
356.000000 1136.000000 -208.000000
354.000000 1136.000000 -208.000000
352.000000 1136.000000 -208.000000
350.000000 1136.000000 -208.000000
348.000000 1136.000000 -208.000000
346.000000 1136.000000 -208.000000
344.000000 1136.000000 -208.000000
342.000000 1136.000000 -208.000000
340.000000 1136.000000 -208.000000
338.000000 1136.000000 -208.000000
336.000000 1136.000000 -208.000000
334.000000 1136.000000 -208.000000
332.000000 1136.000000 -208.000000
330.000000 1136.000000 -208.000000
328.000000 1136.000000 -208.000000
326.000000 1136.000000 -208.000000
324.000000 1136.000000 -208.000000
322.000000 1136.000000 -208.000000
320.000000 1136.000000 -208.000000
318.000000 1136.000000 -208.000000
316.000000 1136.000000 -208.000000
314.000000 1136.000000 -208.000000
312.000000 1136.000000 -208.000000
310.000000 1136.000000 -208.000000
308.000000 1136.000000 -208.000000
306.000000 1136.000000 -208.000000
304.000000 1136.000000 -208.000000
302.000000 1136.000000 -208.000000
300.000000 1136.000000 -208.000000
298.000000 1136.000000 -208.000000
296.000000 1136.000000 -208.000000
294.000000 1136.000000 -208.000000
292.000000 1136.000000 -208.000000
290.000000 1136.000000 -208.000000
288.000000 1136.000000 -208.000000
286.000000 1136.000000 -208.000000
284.000000 1136.000000 -208.000000
282.000000 1136.000000 -208.000000
280.000000 1136.000000 -208.000000
278.000000 1136.000000 -208.000000
276.000000 1136.000000 -208.000000
274.000000 1136.000000 -208.000000
272.000000 1136.000000 -208.000000
270.000000 1136.000000 -208.000000
268.000000 1136.000000 -208.000000
266.000000 1136.000000 -208.000000
264.000000 1136.000000 -208.000000
262.000000 1136.000000 -208.000000
260.000000 1136.000000 -208.000000
258.000000 1136.000000 -208.000000
256.000000 1136.000000 -208.000000
254.000000 1136.000000 -208.000000
252.000000 1136.000000 -208.000000
250.000000 1136.000000 -208.000000
248.000000 1136.000000 -208.000000
246.000000 1136.000000 -208.000000
244.000000 1136.000000 -208.000000
242.000000 1136.000000 -208.000000
240.000000 1136.000000 -208.000000
238.000000 1136.000000 -208.000000
236.000000 1136.000000 -208.000000
234.000000 1136.000000 -208.000000
232.000000 1136.000000 -208.000000
230.000000 1136.000000 -208.000000
228.000000 1136.000000 -208.000000
226.000000 1136.000000 -208.000000
224.000000 1136.000000 -208.000000
222.000000 1136.000000 -208.000000
220.000000 1136.000000 -208.000000
218.000000 1136.000000 -208.000000
216.000000 1136.000000 -208.000000
214.000000 1136.000000 -208.000000
212.000000 1136.000000 -208.000000
210.000000 1136.000000 -208.000000
208.000000 1136.000000 -208.000000
206.000000 1136.000000 -208.000000
204.000000 1136.000000 -208.000000
202.000000 1136.000000 -208.000000
200.000000 1136.000000 -208.000000
198.000000 1136.000000 -208.000000
196.000000 1136.000000 -208.000000
194.000000 1136.000000 -208.000000
192.000000 1136.000000 -208.000000
190.000000 1136.000000 -208.000000
188.000000 1136.000000 -208.000000
186.000000 1136.000000 -208.000000
184.000000 1136.000000 -208.000000
182.000000 1136.000000 -208.000000
180.000000 1136.000000 -208.000000
178.000000 1136.000000 -208.000000
176.000000 1136.000000 -208.000000
174.000000 1136.000000 -208.000000
172.000000 1136.000000 -208.000000
170.000000 1136.000000 -208.000000
168.000000 1136.000000 -208.000000
166.000000 1136.000000 -208.000000
164.000000 1136.000000 -208.000000
162.000000 1136.000000 -208.000000
160.000000 1136.000000 -208.000000
158.000000 1136.000000 -208.000000
156.000000 1136.000000 -208.000000
154.000000 1136.000000 -208.000000
152.000000 1136.000000 -208.000000
150.000000 1136.000000 -208.000000
148.000000 1136.000000 -208.000000
146.000000 1136.000000 -208.000000
144.000000 1136.000000 -208.000000
142.000000 1136.000000 -208.000000
140.000000 1136.000000 -208.000000
138.000000 1136.000000 -208.000000
136.000000 1136.000000 -208.000000
134.000000 1136.000000 -208.000000
132.000000 1136.000000 -208.000000
130.000000 1136.000000 -208.000000
128.000000 1136.000000 -208.000000
126.000000 1136.000000 -208.000000
124.000000 1136.000000 -208.000000
122.000000 1136.000000 -208.000000
120.000000 1136.000000 -208.000000
118.000000 1136.000000 -208.000000
116.000000 1136.000000 -208.000000
114.000000 1136.000000 -208.000000
112.000000 1136.000000 -208.000000
110.000000 1136.000000 -208.000000
108.000000 1136.000000 -208.000000
106.000000 1136.000000 -208.000000
104.000000 1136.000000 -208.000000
102.000000 1136.000000 -208.000000
100.000000 1136.000000 -208.000000
98.000000 1136.000000 -208.000000
96.000000 1136.000000 -208.000000
94.000000 1136.000000 -208.000000
92.000000 1136.000000 -208.000000
90.000000 1136.000000 -208.000000
88.000000 1136.000000 -208.000000
86.000000 1136.000000 -208.000000
84.000000 1136.000000 -208.000000
82.000000 1136.000000 -208.000000
80.000000 1136.000000 -208.000000
78.000000 1136.000000 -208.000000
76.000000 1136.000000 -208.000000
74.000000 1136.000000 -208.000000
72.000000 1136.000000 -208.000000
70.000000 1136.000000 -208.000000
68.000000 1136.000000 -208.000000
66.000000 1136.000000 -208.000000
64.000000 1136.000000 -208.000000
62.000000 1136.000000 -208.000000
60.000000 1136.000000 -208.000000
58.000000 1136.000000 -208.000000
56.000000 1136.000000 -208.000000
54.000000 1136.000000 -208.000000
52.000000 1136.000000 -208.000000
50.000000 1136.000000 -208.000000
48.000000 1136.000000 -208.000000
46.000000 1136.000000 -208.000000
44.000000 1136.000000 -208.000000
42.000000 1136.000000 -208.000000
40.000000 1136.000000 -208.000000
38.000000 1136.000000 -208.000000
36.000000 1136.000000 -208.000000
34.000000 1136.000000 -208.000000
32.000000 1136.000000 -208.000000
30.000000 1136.000000 -208.000000
28.000000 1136.000000 -208.000000
26.000000 1136.000000 -208.000000
24.000000 1136.000000 -208.000000
22.000000 1136.000000 -208.000000
20.000000 1136.000000 -208.000000
18.000000 1136.000000 -208.000000
16.000000 1136.000000 -208.000000
14.000000 1136.000000 -208.000000
12.000000 1136.000000 -208.000000
10.000000 1136.000000 -208.000000
8.000000 1136.000000 -208.000000
6.000000 1136.000000 -208.000000
4.000000 1136.000000 -208.000000
2.000000 1136.000000 -208.000000
0.000000 1136.000000 -208.000000
-2.000000 1136.000000 -208.000000
-4.000000 1136.000000 -208.000000
-6.000000 1136.000000 -208.000000
-8.000000 1136.000000 -208.000000
-10.000000 1136.000000 -208.000000
-12.000000 1136.000000 -208.000000
-14.000000 1136.000000 -208.000000
-16.000000 1136.000000 -208.000000
-18.000000 1136.000000 -208.000000
-20.000000 1136.000000 -208.000000
-22.000000 1136.000000 -208.000000
-24.000000 1136.000000 -208.000000
-26.000000 1136.000000 -208.000000
-28.000000 1136.000000 -208.000000
-30.000000 1136.000000 -208.000000
-32.000000 1136.000000 -208.000000
-34.000000 1136.000000 -208.000000
-36.000000 1136.000000 -208.000000
-38.000000 1136.000000 -208.000000
-40.000000 1136.000000 -208.000000
-44.000000 1136.000000 -208.000000
-44.000000 1135.142152 -206.193319
-44.000000 1134.284303 -204.386638
-44.000000 1133.426455 -202.579957
-44.000000 1132.568606 -200.773276
-44.000000 1131.710758 -198.966595
-44.000000 1130.852909 -197.159914
-44.000000 1129.995061 -195.353234
-44.000000 1129.137212 -193.546553
-44.000000 1128.279364 -191.739872
-44.000000 1127.421515 -189.933191
-44.000000 1126.563667 -188.126510
-44.000000 1125.705818 -186.319829
-44.000000 1124.847970 -184.513148
-44.000000 1123.990121 -182.706467
-44.000000 1123.132273 -180.899786
-44.000000 1122.274424 -179.093105
-44.000000 1121.416576 -177.286424
-44.000000 1120.558727 -175.479743
-44.000000 1119.700879 -173.673062
-44.000000 1118.843030 -171.866382
-44.000000 1117.985182 -170.059701
-44.000000 1117.127333 -168.253020
-44.000000 1116.269485 -166.446339
-44.000000 1115.411636 -164.639658
-44.000000 1114.553788 -162.832977
-44.000000 1113.695939 -161.026296
-44.000000 1112.838091 -159.219615
-44.000000 1111.980242 -157.412934
-44.000000 1111.122394 -155.606253
-44.000000 1110.264545 -153.799572
-44.000000 1109.406697 -151.992891
-44.000000 1108.548848 -150.186210
-44.000000 1107.691000 -148.379530
-44.000000 1106.833151 -146.572849
-44.000000 1105.975303 -144.766168
-44.000000 1105.117454 -142.959487
-44.000000 1104.259606 -141.152806
-44.000000 1103.401757 -139.346125
-44.000000 1102.543909 -137.539444
-44.000000 1101.686060 -135.732763
-44.000000 1100.828212 -133.926082
-44.000000 1099.970363 -132.119401
-44.000000 1099.112515 -130.312720
-44.000000 1098.254666 -128.506039
-44.000000 1097.396818 -126.699358
-44.000000 1096.538969 -124.892678
-44.000000 1095.681121 -123.085997
-44.000000 1094.823272 -121.279316
-44.000000 1093.965424 -119.472635
-44.000000 1093.107575 -117.665954
-44.000000 1092.249727 -115.859273
-44.000000 1091.391878 -114.052592
-44.000000 1090.534030 -112.245911
-44.000000 1089.676181 -110.439230
-44.000000 1088.818333 -108.632549
-44.000000 1087.960484 -106.825868
-44.000000 1087.102636 -105.019187
-44.000000 1086.244787 -103.212506
-44.000000 1085.386939 -101.405826
-44.000000 1084.529090 -99.599145
-44.000000 1083.671242 -97.792464
-44.000000 1082.813393 -95.985783
-44.000000 1081.955545 -94.179102
-44.000000 1081.097696 -92.372421
-44.000000 1080.239848 -90.565740
-44.000000 1079.381999 -88.759059
-44.000000 1078.524151 -86.952378
-44.000000 1077.666302 -85.145697
-44.000000 1076.808454 -83.339016
-44.000000 1075.950605 -81.532335
-44.000000 1075.092757 -79.725654
-44.000000 1074.234908 -77.918974
-44.000000 1073.377060 -76.112293
-44.000000 1072.519211 -74.305612
-44.000000 1071.661363 -72.498931
-44.000000 1070.803514 -70.692250
-44.000000 1069.945666 -68.885569
-44.000000 1069.087817 -67.078888
-44.000000 1068.229969 -65.272207
-44.000000 1067.372120 -63.465526
-44.000000 1066.514272 -61.658845
-44.000000 1065.656423 -59.852164
-44.000000 1064.798575 -58.045483
-44.000000 1063.940726 -56.238802
-44.000000 1063.082878 -54.432122
-44.000000 1062.225029 -52.625441
-44.000000 1061.367181 -50.818760
-44.000000 1060.509332 -49.012079
-44.000000 1059.651484 -47.205398
-44.000000 1058.793635 -45.398717
-44.000000 1057.935787 -43.592036
-44.000000 1057.077938 -41.785355
-44.000000 1056.220090 -39.978674
-44.000000 1055.362241 -38.171993
-44.000000 1054.504393 -36.365312
-44.000000 1053.646544 -34.558631
-44.000000 1052.788696 -32.751950
-44.000000 1051.930847 -30.945270
-44.000000 1051.072999 -29.138589
-44.000000 1050.215150 -27.331908
-44.000000 1049.357302 -25.525227
-44.000000 1048.499453 -23.718546
-44.000000 1047.641605 -21.911865
-44.000000 1046.783756 -20.105184
-44.000000 1045.925908 -18.298503
-44.000000 1045.068059 -16.491822
-44.000000 1044.210211 -14.685141
-44.000000 1043.352362 -12.878460
-44.000000 1042.494514 -11.071779
-44.000000 1041.636665 -9.265098
-44.000000 1040.778817 -7.458418
-44.000000 1039.920968 -5.651737
-44.000000 1039.063120 -3.845056
-44.000000 1038.205271 -2.038375
-44.000000 1037.347423 -0.231694
-44.000000 1036.489574 1.574987
-44.000000 1035.631726 3.381668
-44.000000 1034.773877 5.188349
-44.000000 1033.916029 6.995030
-44.000000 1033.058180 8.801711
-44.000000 1032.200332 10.608392
-44.000000 1031.342484 12.415073
-44.000000 1030.484635 14.221754
-44.000000 1029.626787 16.028434
-44.000000 1028.768938 17.835115
-44.000000 1027.911090 19.641796
-44.000000 1027.053241 21.448477
-44.000000 1026.195393 23.255158
-44.000000 1025.337544 25.061839
-44.000000 1024.479696 26.868520
-44.000000 1023.621847 28.675201
-44.000000 1022.763999 30.481882
-44.000000 1021.906150 32.288563
-44.000000 1021.048302 34.095244
-44.000000 1020.190453 35.901925
-44.000000 1019.332605 37.708606
-44.000000 1018.474756 39.515286
-44.000000 1017.616908 41.321967
-44.000000 1016.759059 43.128648
-44.000000 1015.901211 44.935329
-44.000000 1015.043362 46.742010
-44.000000 1014.185514 48.548691
-44.000000 1013.327665 50.355372
-44.000000 1012.469817 52.162053
-44.000000 1011.611968 53.968734
-44.000000 1010.754120 55.775415
-44.000000 1009.896271 57.582096
-44.000000 1009.038423 59.388777
-44.000000 1008.180574 61.195458
-44.000000 1007.322726 63.002138
-44.000000 1006.464877 64.808819
-44.000000 1005.607029 66.615500
-44.000000 1004.749180 68.422181
-44.000000 1003.891332 70.228862
-44.000000 1003.033483 72.035543
-44.000000 1002.175635 73.842224
-44.000000 1001.317786 75.648905
-44.000000 1000.459938 77.455586
-44.000000 999.602089 79.262267
-44.000000 998.744241 81.068948
-44.000000 997.886392 82.875629
-44.000000 997.028544 84.682310
-44.000000 996.170695 86.488990
-44.000000 995.312847 88.295671
